# .PCD v0.7 - Point Cloud Data file format
VERSION 0.7
FIELDS x y z
SIZE 4 4 4
TYPE F F F
COUNT 1 1 1
WIDTH 874
HEIGHT 1
VIEWPOINT 0 0 0 1 0 0 0
POINTS 874
DATA ascii
-0.14909885823726654 -0.20902836322784424 0.011210182681679726
-0.1435726284980774 -0.20315004885196686 0.010861228220164776
-0.14497698843479156 -0.20704805850982666 0.011035705916583538
-0.14691948890686035 -0.21178299188613892 0.011253802105784416
-0.14316466450691223 -0.20830531418323517 0.011035705916583538
-0.1405675858259201 -0.20645056664943695 0.010904846712946892
-0.14022411406040192 -0.20789019763469696 0.010948467068374157
-0.1409808099269867 -0.21099208295345306 0.011079324409365654
-0.13785320520401 -0.20827284455299377 0.010904846712946892
-0.13584759831428528 -0.20720139145851135 0.010817608796060085
-0.13548634946346283 -0.2086300402879715 0.010861228220164776
-0.134574756026268 -0.20921921730041504 0.010861228220164776
-0.13419736921787262 -0.21064698696136475 0.010904846712946892
-0.13381008803844452 -0.21207545697689056 0.010948467068374157
-0.1328834742307663 -0.21265728771686554 0.010948467068374157
-0.13090290129184723 -0.2115359902381897 0.010861228220164776
-0.1284126490354538 -0.2095496505498886 0.01073036901652813
-0.1269788146018982 -0.20925384759902954 0.010686749592423439
-0.12812277674674988 -0.21323132514953613 0.010861228220164776
-0.12821277976036072 -0.21550551056861877 0.010948467068374157
-0.1257500797510147 -0.21348045766353607 0.010817608796060085
-0.12431411445140839 -0.2131640911102295 0.010773989371955395
-0.124381884932518 -0.21543487906455994 0.010861228220164776
-0.1234406977891922 -0.2159755527973175 0.010861228220164776
-0.12102128565311432 -0.2139035016298294 0.01073036901652813
-0.11911050230264664 -0.2126861959695816 0.010643131099641323
-0.11818135529756546 -0.21320389211177826 0.010643131099641323
-0.11773048341274261 -0.21459339559078217 0.010686749592423439
-0.1182231605052948 -0.21773900091648102 0.010817608796060085
-0.11774484813213348 -0.21913282573223114 0.010861228220164776
-0.11678759008646011 -0.2196444869041443 0.010861228220164776
-0.11443258076906204 -0.2174995243549347 0.01073036901652813
-0.11394379287958145 -0.21888293325901031 0.010773989371955395
-0.11344510316848755 -0.220266193151474 0.010817608796060085
-0.1111222505569458 -0.21808861196041107 0.010686749592423439
-0.1088206022977829 -0.21589501202106476 0.010555892251431942
-0.10832332819700241 -0.21726185083389282 0.010599511675536633
-0.10693245381116867 -0.21683642268180847 0.010555892251431942
-0.10554736107587814 -0.21640299260616302 0.010512272827327251
-0.105036161839962 -0.2177613079547882 0.010555892251431942
-0.10279469937086105 -0.21551236510276794 0.01042503397911787
-0.10142720490694046 -0.21505522727966309 0.01038141455501318
-0.10217677056789398 -0.21911752223968506 0.010555892251431942
-0.10247451066970825 -0.22228308022022247 0.010686749592423439
-0.10026075690984726 -0.22000081837177277 0.010555892251431942
-0.09806888550519943 -0.21770352125167847 0.01042503397911787
-0.09711804986000061 -0.21812935173511505 0.01042503397911787
-0.09737245738506317 -0.2212943434715271 0.010555892251431942
-0.09600759297609329 -0.22080090641975403 0.010512272827327251
-0.09543763101100922 -0.22213563323020935 0.010555892251431942
-0.0948578417301178 -0.2234695702791214 0.010599511675536633
-0.09349553287029266 -0.22296001017093658 0.010555892251431942
-0.0917571634054184 -0.2215198427438736 0.010468653403222561
-0.09116802364587784 -0.2228427529335022 0.010512272827327251
-0.09056908637285233 -0.22416472434997559 0.010555892251431942
-0.08921992033720016 -0.22362984716892242 0.010512272827327251
-0.08860946446657181 -0.224946528673172 0.010555892251431942
-0.087627112865448 -0.22533102333545685 0.010555892251431942
-0.08664309978485107 -0.22571122646331787 0.010555892251431942
-0.08494951575994492 -0.22421863675117493 0.010468653403222561
-0.08397038280963898 -0.22458715736865997 0.010468653403222561
-0.08368122577667236 -0.2268259972333908 0.010555892251431942
-0.08371580392122269 -0.23000533878803253 0.010686749592423439
-0.08338662981987 -0.23224900662899017 0.010773989371955395
-0.08270595967769623 -0.23355238139629364 0.010817608796060085
-0.08102735131978989 -0.23202462494373322 0.01073036901652813
-0.07936367392539978 -0.23048675060272217 0.010643131099641323
-0.0780361071228981 -0.2298848032951355 0.010599511675536633
-0.0760812908411026 -0.22738085687160492 0.010468653403222561
-0.07571417838335037 -0.22960823774337769 0.010555892251431942
-0.07625523954629898 -0.23468716442584991 0.010773989371955395
-0.07583966106176376 -0.23692063987255096 0.010861228220164776
-0.07420434057712555 -0.23534367978572845 0.010773989371955395
-0.07347302883863449 -0.23661932349205017 0.010817608796060085
-0.07302407920360565 -0.23884841799736023 0.010904846712946892
-0.07082951813936234 -0.23533813655376434 0.01073036901652813
-0.06895075738430023 -0.23277124762535095 0.010599511675536633
-0.06821402162313461 -0.23402900993824005 0.010643131099641323
-0.0680183693766594 -0.23720546066761017 0.010773989371955395
-0.06671153753995895 -0.23653843998908997 0.01073036901652813
-0.0651448518037796 -0.23490186035633087 0.010643131099641323
-0.06411928683519363 -0.23518386483192444 0.010643131099641323
-0.06283392757177353 -0.23449638485908508 0.010599511675536633
-0.06155578792095184 -0.2338021993637085 0.010555892251431942
-0.0607852041721344 -0.23503577709197998 0.010599511675536633
-0.06000501662492752 -0.2362670749425888 0.010643131099641323
-0.05897354707121849 -0.23652663826942444 0.010643131099641323
-0.0586533397436142 -0.23969295620918274 0.010773989371955395
-0.05737370252609253 -0.2389751374721527 0.01073036901652813
-0.05587247386574745 -0.2372783124446869 0.010643131099641323
-0.05393766984343529 -0.2336260825395584 0.010468653403222561
-0.05247679352760315 -0.2319103628396988 0.01038141455501318
-0.05189688131213188 -0.23408786952495575 0.010468653403222561
-0.05002707615494728 -0.23040688037872314 0.010294175706803799
-0.047774963080883026 -0.22475965321063995 0.010032459162175655
-0.04496276006102562 -0.21616296470165253 0.009639885276556015
-0.043222423642873764 -0.21244113147258759 0.009465407580137253
-0.042295072227716446 -0.21262769401073456 0.009465407580137253
-0.040985651314258575 -0.2108488380908966 0.009378168731927872
-0.390776127576828 -2.0582363605499268 0.09146986156702042
-0.38998469710350037 -2.104126214981079 0.09343273192644119
-0.3875555992126465 -2.1431655883789062 0.09509026259183884
-0.38514015078544617 -2.1841909885406494 0.09683503955602646
-0.3825431168079376 -2.22622013092041 0.09862343966960907
-0.37958648800849915 -2.2682671546936035 0.10041183233261108
-0.37482479214668274 -2.3014557361602783 0.10180765390396118
-0.368061363697052 -2.3237907886505127 0.10272365808486938
-0.35913437604904175 -2.3332741260528564 0.1030726209282875
-0.7664204835891724 -5.128104209899902 0.22638462483882904
-0.7433210611343384 -5.126456260681152 0.22616654634475708
-0.7202505469322205 -5.124703884124756 0.22594843804836273
-0.6969401240348816 -5.120868682861328 0.2256430983543396
-0.6739376187324524 -5.118907928466797 0.22542500495910645
-0.6510915756225586 -5.117835521697998 0.2252505123615265
-0.6280243396759033 -5.114678382873535 0.22498881816864014
-0.6051144003868103 -5.112409591674805 0.2247707098722458
-0.5822362303733826 -5.110037803649902 0.22455261647701263
-0.5590640306472778 -5.104584693908691 0.2242036610841751
-0.536368191242218 -5.103001117706299 0.22402918338775635
-0.5136968493461609 -5.101316928863525 0.22385470569133759
-0.4910504221916199 -5.099532127380371 0.22368022799491882
-0.46852076053619385 -5.098641395568848 0.22354938089847565
-0.44565990567207336 -5.093669891357422 0.22324402630329132
-0.4229341745376587 -5.089592456817627 0.22298233211040497
-0.40033087134361267 -5.086409568786621 0.22276422381401062
-0.3777633607387543 -5.083126544952393 0.22254611551761627
-0.35516247153282166 -5.078746318817139 0.22228440642356873
-0.3326723575592041 -5.075263023376465 0.22206629812717438
-0.3102804124355316 -5.072678089141846 0.2218918353319168
-0.28797397017478943 -5.070991039276123 0.22176097333431244
-0.2655836343765259 -5.067211151123047 0.22154287993907928
-0.2433755248785019 -5.066325664520264 0.2214556336402893
-0.2210494726896286 -5.06234884262085 0.22123752534389496
-0.19852741062641144 -5.052284240722656 0.22075773775577545
-0.17606252431869507 -5.041121006011963 0.22023428976535797
-0.15388190746307373 -5.0358500480651855 0.21997258067131042
-0.1319075971841812 -5.036473274230957 0.21997258067131042
-0.10997436940670013 -5.038998603820801 0.2200598120689392
-0.08791698515415192 -5.035435199737549 0.21988534927368164
-0.0658273696899414 -5.026779651641846 0.21949276328086853
-0.04384986311197281 -5.022024631500244 0.21927466988563538
-0.02194565162062645 -5.024165630340576 0.21936191618442535
-2.3592065190314315e-05 -5.027210712432861 0.21949276328086853
0.021894142031669617 -5.023167133331299 0.21931828558444977
0.043750446289777756 -5.016030788421631 0.21901296079158783
0.013686778023838997 -1.0459140539169312 0.04566949978470802
0.018058527261018753 -1.0348564386367798 0.04518968611955643
0.022486573085188866 -1.0307726860046387 0.045015208423137665
0.02693161554634571 -1.0286672115325928 0.04492797330021858
0.03145023062825203 -1.0295383930206299 0.044971588999032974
0.03604668751358986 -1.0323868989944458 0.045102447271347046
0.041178423911333084 -1.0481921434402466 0.045800358057022095
0.21769042313098907 -4.9864959716796875 0.21792246401309967
0.06911147385835648 -1.4389688968658447 0.0628991574048996
0.07612138241529465 -1.4526212215423584 0.06350982934236526
0.08245885372161865 -1.4522751569747925 0.06350982934236526
0.08891673386096954 -1.453895926475525 0.06359706819057465
0.09441027790307999 -1.4405343532562256 0.06303001940250397
0.34835538268089294 -4.9820780754089355 0.21805331110954285
0.37016430497169495 -4.981507301330566 0.21809694170951843
0.3918181359767914 -4.978848457336426 0.21805331110954285
0.41362127661705017 -4.978086948394775 0.21809694170951843
0.4351640045642853 -4.974244594573975 0.21800969541072845
0.45677250623703003 -4.971303939819336 0.21796607971191406
0.4785551130771637 -4.970257759094238 0.21800969541072845
0.5000370740890503 -4.966134548187256 0.21792246401309967
0.5212832689285278 -4.959930896759033 0.2177479863166809
0.5429198741912842 -4.957609176635742 0.2177479863166809
0.5646592378616333 -4.956185817718506 0.2177916020154953
0.5862790942192078 -4.953674793243408 0.2177916020154953
0.6078878045082092 -4.951069355010986 0.2177916020154953
0.31442731618881226 -2.471707582473755 0.10878676176071167
0.32533949613571167 -2.4713025093078613 0.10883037745952606
0.33584994077682495 -2.4678795337677 0.10874313116073608
0.3428608477115631 -2.439678907394409 0.10756541043519974
0.2846943140029907 -1.963578701019287 0.08662810176610947
0.27465370297431946 -1.837820291519165 0.08113206177949905
0.28115028142929077 -1.8267302513122559 0.08069587498903275
0.2892744243144989 -1.8264727592468262 0.08073949068784714
0.29659876227378845 -1.8212491273880005 0.08056501299142838
0.30668607354164124 -1.8327471017837524 0.08113206177949905
0.8381314277648926 -4.877802848815918 0.21609045565128326
0.8654783964157104 -4.908535003662109 0.21761713922023773
0.8875985145568848 -4.908644199371338 0.2177916020154953
0.8911664485931396 -4.808457851409912 0.21351692080497742
0.9121386408805847 -4.804523468017578 0.21351692080497742
0.95234614610672 -4.899547576904297 0.21792246401309967
0.9741050004959106 -4.897305011749268 0.21800969541072845
0.9966591000556946 -4.8988823890686035 0.2182714194059372
1.01883864402771 -4.898399353027344 0.21844591200351715
1.0406174659729004 -4.895861625671387 0.21853314340114594
1.063029408454895 -4.896156311035156 0.2187512367963791
1.0848150253295898 -4.893421649932861 0.21883846819400787
1.1059356927871704 -4.887667655944824 0.21879485249519348
1.1281503438949585 -4.88668966293335 0.21896934509277344
1.1506065130233765 -4.886582374572754 0.2191874235868454
1.1723835468292236 -4.883458614349365 0.21927466988563538
1.1943926811218262 -4.8812079429626465 0.21940553188323975
1.2164044380187988 -4.8788580894470215 0.21953639388084412
1.2374347448349 -4.872535705566406 0.21949276328086853
1.2596838474273682 -4.8709588050842285 0.2196672409772873
1.2814338207244873 -4.8673481941223145 0.21975447237491608
1.3029178380966187 -4.862675666809082 0.21979808807373047
1.324911117553711 -4.859836101531982 0.21992896497249603
1.34663724899292 -4.855934143066406 0.22001619637012482
1.3694392442703247 -4.855781555175781 0.22027790546417236
1.083577036857605 -3.7789714336395264 0.17164228856563568
1.1006145477294922 -3.776125907897949 0.17172953486442566
1.112540602684021 -3.7559611797332764 0.1710316240787506
1.123735785484314 -3.733851194381714 0.17024646699428558
1.1102240085601807 -3.6314618587493896 0.16579729318618774
1.0745104551315308 -3.4605674743652344 0.15820752084255219
1.0775831937789917 -3.417733907699585 0.15646274387836456
1.0994905233383179 -3.4348838329315186 0.15746599435806274
1.1419432163238525 -3.514617443084717 0.1613481193780899
1.2029452323913574 -3.6481258869171143 0.16771654784679413
1.2362862825393677 -3.6949503421783447 0.1701156198978424
1.256892442703247 -3.702765464782715 0.17072629928588867
1.2753134965896606 -3.7038583755493164 0.1710316240787506
1.2967321872711182 -3.7133495807647705 0.17172953486442566
1.3182580471038818 -3.722724199295044 0.1724274456501007
1.3338136672973633 -3.7150564193725586 0.17234019935131073
1.3493274450302124 -3.7073235511779785 0.17225296795368195
1.367565393447876 -3.707024574279785 0.1725146770477295
1.3893250226974487 -3.7159945964813232 0.17321258783340454
1.4126046895980835 -3.7285821437835693 0.17408497631549835
1.426711916923523 -3.7167868614196777 0.1738232672214508
1.414673089981079 -3.6378989219665527 0.17042095959186554
1.3887920379638672 -3.5257246494293213 0.16544833779335022
1.3871334791183472 -3.4769465923309326 0.16344185173511505
1.392935037612915 -3.4477035999298096 0.16235136985778809
1.4015344381332397 -3.4258737564086914 0.16160982847213745
1.419909954071045 -3.428032875061035 0.16200241446495056
1.4367855787277222 -3.4264113903045654 0.16222050786018372
1.450551152229309 -3.4173507690429688 0.16208964586257935
1.4674201011657715 -3.415578603744507 0.1623077541589737
1.4843010902404785 -3.413724184036255 0.16252583265304565
1.4983773231506348 -3.405386447906494 0.16243860125541687
2.1133904457092285 -4.746842861175537 0.22686444222927094
2.136133909225464 -4.742131233215332 0.2270825356245041
2.1592905521392822 -4.738219738006592 0.22734425961971283
2.1824536323547363 -4.73419713973999 0.22760598361492157
2.205200433731079 -4.729156017303467 0.22782406210899353
2.229649782180786 -4.727622032165527 0.22821664810180664
2.2545571327209473 -4.726865291595459 0.22865283489227295
2.278632879257202 -4.72418212890625 0.22900180518627167
2.3014135360717773 -4.718684196472168 0.22921988368034363
2.3255157470703125 -4.715765953063965 0.22956885397434235
2.350973129272461 -4.715408802032471 0.23004865646362305
2.3746731281280518 -4.711350917816162 0.23035398125648499
2.406546115875244 -4.723198890686035 0.23144447803497314
0.0 -0.0 0.0
2.1210691928863525 -4.074609756469727 0.20056194067001343
2.133711099624634 -4.055590629577637 0.20008213818073273
2.1593594551086426 -4.061237812042236 0.20082366466522217
2.186516523361206 -4.06937837600708 0.20169605314731598
2.2142627239227295 -4.078237533569336 0.20261207222938538
2.2402048110961914 -4.0834269523620605 0.20335358381271362
2.266718864440918 -4.08934211730957 0.20413874089717865
2.2933268547058105 -4.095102787017822 0.20492389798164368
2.3215041160583496 -4.1033172607421875 0.20583990216255188
2.3493006229400635 -4.110496520996094 0.2067122906446457
2.3752057552337646 -4.114049911499023 0.20741018652915955
2.4031996726989746 -4.120907306671143 0.20828257501125336
2.4323127269744873 -4.12932014465332 0.20924220979213715
2.4615442752838135 -4.137557029724121 0.21020182967185974
2.490379571914673 -4.144760608673096 0.21111783385276794
2.5203609466552734 -4.153499126434326 0.21212109923362732
2.5499439239501953 -4.161203384399414 0.21308071911334991
2.5785903930664062 -4.167028427124023 0.21395310759544373
2.60786509513855 -4.173529624938965 0.21486911177635193
2.639378070831299 -4.183234214782715 0.2159595936536789
2.6699516773223877 -4.1910576820373535 0.21696284413337708
2.699022054672241 -4.196173191070557 0.2178352326154709
2.7303640842437744 -4.204465389251709 0.21888208389282227
2.761282205581665 -4.211728572845459 0.21988534927368164
2.794520616531372 -4.222133636474609 0.2210630625486374
2.8262369632720947 -4.2298359870910645 0.22210991382598877
2.8580739498138428 -4.237342357635498 0.22315679490566254
2.890592336654663 -4.245477199554443 0.2242472767829895
2.9238014221191406 -4.254230976104736 0.22538138926029205
2.9696693420410156 -4.280834674835205 0.227475106716156
3.0135326385498047 -4.303845405578613 0.2293943613767624
3.0224807262420654 -4.276785373687744 0.22865283489227295
3.0370516777038574 -4.257863521575928 0.22834749519824982
3.057935953140259 -4.247814655303955 0.22852198779582977
3.081139087677002 -4.2408976554870605 0.2288709282875061
3.102567672729492 -4.231441974639893 0.22908903658390045
3.1239724159240723 -4.221879959106445 0.2293071299791336
3.1459505558013916 -4.213011741638184 0.22956885397434235
3.166106700897217 -4.201638698577881 0.22969970107078552
3.1844093799591064 -4.187783718109131 0.22969970107078552
3.20751690864563 -4.180190086364746 0.23004865646362305
3.2324538230895996 -4.174844741821289 0.23052847385406494
3.252484083175659 -4.163062572479248 0.23065932095050812
3.2743287086486816 -4.153538703918457 0.23092104494571686
3.29677414894104 -4.1446852684021 0.2312263697385788
3.317328453063965 -4.133378028869629 0.23140086233615875
3.339104413986206 -4.123522758483887 0.2316625714302063
3.3608572483062744 -4.113555908203125 0.23192429542541504
3.382586717605591 -4.103477954864502 0.23218601942062378
3.4062085151672363 -4.095592498779297 0.2325785756111145
3.4304680824279785 -4.088344573974609 0.2330147922039032
3.4515013694763184 -4.077149868011475 0.23323287069797516
3.4725024700164795 -4.065849781036377 0.2334509640932083
3.484992742538452 -4.044604778289795 0.23310202360153198
0.0 -0.0 0.0
3.1196587085723877 -3.55735182762146 0.20658141374588013
3.038501024246216 -3.4344615936279297 0.2002129852771759
0.0 -0.0 0.0
0.0 -0.0 0.0
0.0 -0.0 0.0
0.0 -0.0 0.0
0.0 -0.0 0.0
0.0 -0.0 0.0
0.0 -0.0 0.0
3.004530429840088 -3.1661715507507324 0.19057312607765198
3.0224618911743164 -3.1573617458343506 0.19083482027053833
0.0 -0.0 0.0
0.0 -0.0 0.0
0.0 -0.0 0.0
0.0 -0.0 0.0
0.0 -0.0 0.0
0.0 -0.0 0.0
0.0 -0.0 0.0
0.0 -0.0 0.0
0.0 -0.0 0.0
0.0 -0.0 0.0
0.0 -0.0 0.0
0.0 -0.0 0.0
0.0 -0.0 0.0
0.0 -0.0 0.0
0.0 -0.0 0.0
3.4483227729797363 -3.1322951316833496 0.20339719951152802
3.4730937480926514 -3.127246856689453 0.20405150949954987
0.0 -0.0 0.0
1.90351402759552 -1.6841191053390503 0.1109677255153656
1.9108442068099976 -1.675797462463379 0.1109677255153656
1.9090900421142578 -1.6595786809921265 0.11044429242610931
1.9102585315704346 -1.6460158824920654 0.11009533703327179
1.9212206602096558 -1.6409093141555786 0.11031343042850494
1.9344621896743774 -1.6376750469207764 0.11066239327192307
1.9477118253707886 -1.6343562602996826 0.11101134121417999
1.9586650133132935 -1.629036545753479 0.11122944205999374
4.096477508544922 -3.3769421577453613 0.23179343342781067
4.105757713317871 -3.3546111583709717 0.23148809373378754
4.1149210929870605 -3.332263708114624 0.2311827540397644
4.127084255218506 -3.312401533126831 0.23105190694332123
4.138370513916016 -3.291874408721924 0.23087742924690247
4.147986888885498 -3.2700750827789307 0.23061570525169373
4.155917644500732 -3.2470245361328125 0.2302667498588562
1.8476488590240479 -1.4306317567825317 0.10202575474977493
1.8554584980010986 -1.4237725734710693 0.10211298614740372
1.8544960021972656 -1.4102205038070679 0.1017204076051712
1.853450894355774 -1.3967043161392212 0.10132784396409988
1.8595274686813354 -1.388603925704956 0.10132784396409988
1.8703869581222534 -1.384042501449585 0.10158955305814743
1.8925217390060425 -1.3876835107803345 0.10246194899082184
1.9777660369873047 -1.4369615316390991 0.10673663765192032
2.1672568321228027 -1.560234785079956 0.11659462749958038
2.2114574909210205 -1.5774509906768799 0.11860111355781555
2.229741334915161 -1.5758590698242188 0.11921178549528122
2.2398695945739746 -1.568407416343689 0.11938627064228058
5.854367733001709 -4.061407566070557 0.3110934793949127
5.895086765289307 -4.051669120788574 0.31231483817100525
5.9383087158203125 -4.043339252471924 0.31366702914237976
5.982398509979248 -4.0352678298950195 0.31506285071372986
6.025698661804199 -4.026332855224609 0.31641504168510437
6.0707011222839355 -4.018199443817139 0.31785449385643005
6.11741828918457 -4.010845184326172 0.3193811774253845
6.159158229827881 -3.999894618988037 0.32064613699913025
2.1375527381896973 -1.3749513626098633 0.1109677255153656
2.146901845932007 -1.3677586317062378 0.11114220321178436
2.1444003582000732 -1.3530470132827759 0.11070600897073746
2.1426584720611572 -1.3389126062393188 0.11031343042850494
2.150179147720337 -1.3306022882461548 0.11040067672729492
2.163630962371826 -1.3259059190750122 0.11079324781894684
2.1796445846557617 -1.3226721286773682 0.11131668090820312
2.191389560699463 -1.3167510032653809 0.11162201315164566
6.374121189117432 -3.792294502258301 0.32383033633232117
9.113329887390137 -5.36829137802124 0.4617984890937805
6.987775802612305 -4.075249671936035 0.3531861901283264
7.00722074508667 -4.045720100402832 0.3532734215259552
7.025674819946289 -4.015603065490723 0.3533170521259308
10.761205673217773 -6.08854866027832 0.5398335456848145
10.821664810180664 -6.060575485229492 0.5415347218513489
6.763947010040283 -3.7494120597839355 0.3376576900482178
5.521592617034912 -3.0293266773223877 0.2749766409397125
5.554073333740234 -3.015693187713623 0.2759362459182739
5.587420463562012 -3.0023064613342285 0.2769395112991333
5.625166416168213 -2.9910314083099365 0.27816084027290344
5.662919044494629 -2.9794836044311523 0.2793821692466736
5.704223155975342 -2.969508171081543 0.2807779908180237
5.743770599365234 -2.9583141803741455 0.2820866107940674
5.781548023223877 -2.9459240436553955 0.2833079397678375
5.821110725402832 -2.934159517288208 0.28461650013923645
5.862468242645264 -2.922997236251831 0.28601232171058655
5.903839111328125 -2.911529779434204 0.28740814328193665
5.945220470428467 -2.89975643157959 0.28880396485328674
5.9884114265441895 -2.888545513153076 0.2902870178222656
6.029812812805176 -2.876152276992798 0.2916828393936157
6.073930740356445 -2.8647308349609375 0.2932095229625702
6.118062973022461 -2.8529791831970215 0.29473620653152466
6.16220760345459 -2.8408963680267334 0.2962628901004791
6.208181381225586 -2.8293111324310303 0.2978768050670624
6.255080699920654 -2.817788600921631 0.29953432083129883
6.301998138427734 -2.80591082572937 0.30119186639785767
6.347101211547852 -2.7928719520568848 0.3027621805667877
6.394041538238525 -2.7802894115448 0.30441972613334656
6.436403274536133 -2.76537823677063 0.30585917830467224
6.464041709899902 -2.743903875350952 0.3066006898880005
6.4824018478393555 -2.7183775901794434 0.3069060146808624
6.50343132019043 -2.693890333175659 0.3073422312736511
6.519746780395508 -2.66737961769104 0.3075602948665619
6.537807464599609 -2.641526460647583 0.3078656494617462
6.556694507598877 -2.615936517715454 0.30821460485458374
6.575482368469238 -2.5902318954467773 0.30856356024742126
6.592308521270752 -2.5636889934539795 0.30882528424263
6.609960556030273 -2.5374064445495605 0.30913060903549194
6.627508640289307 -2.511018753051758 0.3094359338283539
6.645888328552246 -2.4848759174346924 0.3097848892211914
6.666040420532227 -2.4593122005462646 0.3102211058139801
6.684217929840088 -2.432936429977417 0.3105700612068176
6.7041730880737305 -2.4071240425109863 0.31100624799728394
6.724971294403076 -2.381517171859741 0.31148606538772583
6.74190092086792 -2.354457139968872 0.31179139018058777
6.758722305297852 -2.3272945880889893 0.3120967149734497
6.779219150543213 -2.30131459236145 0.3125765323638916
6.794880390167236 -2.2736148834228516 0.31283825635910034
6.811378002166748 -2.2461349964141846 0.3131435811519623
6.834415435791016 -2.2207157611846924 0.31375426054000854
6.852603435516357 -2.193615198135376 0.31414681673049927
6.86973237991333 -2.166097640991211 0.3144958019256592
6.8886590003967285 -2.1390650272369385 0.3149319887161255
6.9093918800354 -2.112492561340332 0.3154554069042206
6.92715311050415 -2.08491587638855 0.3158479928970337
6.94193172454834 -2.056373119354248 0.31610971689224243
6.9585113525390625 -2.0283002853393555 0.31645864248275757
6.96537446975708 -1.9973680973052979 0.3163714110851288
8.874018669128418 -2.5028326511383057 0.40256333351135254
8.968611717224121 -2.4873173236846924 0.4063582122325897
9.128778457641602 -2.488893508911133 0.41311925649642944
9.265002250671387 -2.4826536178588867 0.4187897741794586
3.706047534942627 -0.9757623672485352 0.1673239767551422
3.723810911178589 -0.9630845189094543 0.16793464124202728
3.72216796875 -0.9453516006469727 0.16767293214797974
3.730134963989258 -0.9300684928894043 0.1678474098443985
3.7428910732269287 -0.9159210920333862 0.16823998093605042
9.273386001586914 -2.226445436477661 0.41639068722724915
9.17701530456543 -2.161001205444336 0.4116361737251282
9.142552375793457 -2.1108248233795166 0.4096733033657074
9.133161544799805 -2.066723585128784 0.408844530582428
9.093324661254883 -2.0160410404205322 0.40666359663009644
9.02783489227295 -1.9602335691452026 0.40334850549697876
9.019689559936523 -1.9172923564910889 0.4026069641113281
8.806917190551758 -1.8319369554519653 0.39274898171424866
8.70909595489502 -1.7719799280166626 0.38803809881210327
8.640316009521484 -1.7187591791152954 0.3846357762813568
8.594776153564453 -1.670747995376587 0.3822803497314453
8.613761901855469 -1.635466456413269 0.382803738117218
8.67680835723877 -1.6082444190979004 0.3852900564670563
8.73682975769043 -1.579969882965088 0.3876454830169678
8.734786033630371 -1.5402718782424927 0.38725292682647705
8.703023910522461 -1.4955459833145142 0.385551780462265
4.213335990905762 -0.7051154971122742 0.18651649355888367
4.214400768280029 -0.6864035129547119 0.18642926216125488
4.205514430999756 -0.6661326289176941 0.1859058290719986
4.206406116485596 -0.6474723815917969 0.1858185976743698
4.219071865081787 -0.6305890679359436 0.18625478446483612
8.628454208374023 -1.2511574029922485 0.3806664049625397
8.625917434692383 -1.2123844623565674 0.38031747937202454
8.62122631072998 -1.1733880043029785 0.37988126277923584
8.603482246398926 -1.1327602863311768 0.37887802720069885
8.574646949768066 -1.0909227132797241 0.3773949444293976
8.578332901000977 -1.0533766746520996 0.377351313829422
8.61856460571289 -1.0201644897460938 0.37892162799835205
8.643778800964355 -0.9849244952201843 0.37983763217926025
8.819802284240723 -0.9660176038742065 0.3873837888240814
9.088223457336426 -0.9553056359291077 0.3989865481853485
9.108209609985352 -0.917243480682373 0.39968445897102356
9.103175163269043 -0.876630961894989 0.39929187297821045
9.091991424560547 -0.8355313539505005 0.3986376225948334
9.032849311828613 -0.790365993976593 0.395889550447464
8.899812698364258 -0.7396100163459778 0.3899137079715729
8.657947540283203 -0.6814852952957153 0.3791833519935608
3.276831865310669 -0.24354472756385803 0.14346417784690857
3.297795534133911 -0.23063859343528748 0.14433656632900238
3.2977733612060547 -0.21618174016475677 0.1442929357290268
3.2936995029449463 -0.20148548483848572 0.14407484233379364
3.2955446243286133 -0.18716877698898315 0.14411845803260803
3.307304620742798 -0.17336277663707733 0.14459827542304993
5.266901969909668 -0.2530420124530792 0.2302231341600418
5.458592414855957 -0.23838381469249725 0.238554447889328
5.610320091247559 -0.22048816084861755 0.24514096975326538
5.608233451843262 -0.19590184092521667 0.245010107755661
8.584809303283691 -0.26237842440605164 0.3749958872795105
8.700723648071289 -0.22792644798755646 0.3800121247768402
8.776546478271484 -0.19159568846225739 0.3832835853099823
8.986067771911621 -0.15694530308246613 0.39240002632141113
9.012639999389648 -0.11807509511709213 0.3935341238975525
9.005078315734863 -0.07867921143770218 0.39318519830703735
8.99834156036377 -0.03935593366622925 0.39287981390953064
8.997428894042969 -9.300416422775015e-05 0.39283621311187744
8.987353324890137 0.039122071117162704 0.39240002632141113
8.973111152648926 0.07821439206600189 0.39178934693336487
3.7730824947357178 0.04935334622859955 0.16475042700767517
3.782820224761963 0.06599025428295135 0.16518662869930267
3.7775020599365234 0.082386314868927 0.16496852040290833
3.781101703643799 0.09897251427173615 0.16514301300048828
3.7856266498565674 0.11562217772006989 0.16536110639572144
5.4295172691345215 0.18954671919345856 0.2372022271156311
5.555419445037842 0.21821551024913788 0.2427418977022171
0.0 0.0 0.0
0.0 0.0 0.0
0.0 0.0 0.0
0.0 0.0 0.0
0.0 0.0 0.0
0.0 0.0 0.0
0.0 0.0 0.0
8.822253227233887 0.6555149555206299 0.38624969124794006
8.88703441619873 0.6993323564529419 0.3892157971858978
8.866972923278809 0.7366963028907776 0.3884742558002472
8.86168384552002 0.7752044796943665 0.3883870244026184
8.874134063720703 0.8153257966041565 0.38908493518829346
6.744359016418457 0.6493374705314636 0.2958267033100128
6.7543840408325195 0.680060088634491 0.2963937520980835
6.751352310180664 0.7095250487327576 0.2963937520980835
6.745212554931641 0.7386502027511597 0.2962628901004791
6.739940166473389 0.7678484916687012 0.29617565870285034
6.733549118041992 0.796897292137146 0.29604479670524597
6.728024959564209 0.8260267972946167 0.2959575653076172
6.722374439239502 0.8551232814788818 0.2958703339099884
6.716598033905029 0.8841861486434937 0.29578307271003723
6.710696697235107 0.9132149815559387 0.29569584131240845
6.705658912658691 0.9423481225967407 0.29565221071243286
6.698516845703125 0.9711679816246033 0.2955213487148285
6.692239284515381 1.0000911951065063 0.2954341173171997
6.687811851501465 1.0292819738388062 0.2954341173171997
6.681283950805664 1.058140754699707 0.2953468859195709
6.676603317260742 1.0872831344604492 0.2953468859195709
6.671795845031738 1.1164050102233887 0.2953468859195709
6.664891719818115 1.1451671123504639 0.29525965452194214
6.659831523895264 1.1742372512817383 0.29525965452194214
6.653661251068115 1.203107237815857 0.29521602392196655
6.648348331451416 1.2321277856826782 0.29521602392196655
6.641927242279053 1.2609385251998901 0.29517239332199097
6.633420467376709 1.2893354892730713 0.295041561126709
6.628711223602295 1.3184618949890137 0.2950851619243622
6.622895240783691 1.3473724126815796 0.2950851619243622
6.615975379943848 1.3760539293289185 0.295041561126709
6.610885143280029 1.405116081237793 0.2950851619243622
6.599809646606445 1.4328882694244385 0.29486706852912903
6.594470024108887 1.4618878364562988 0.2949106693267822
6.589977741241455 1.4910887479782104 0.2949979305267334
6.582435131072998 1.5196038484573364 0.2949542999267578
6.575741767883301 1.54831063747406 0.2949542999267578
6.566009521484375 1.5762883424758911 0.29482343792915344
6.546453475952148 1.601836085319519 0.29425638914108276
6.51613712310791 1.624584674835205 0.2932095229625702
6.484778881072998 1.6468535661697388 0.2921190559864044
6.458187103271484 1.6701302528381348 0.2912466824054718
6.43344783782959 1.6937150955200195 0.2904615104198456
6.402835845947266 1.7155646085739136 0.289414644241333
6.378903388977051 1.7390187978744507 0.28867313265800476
6.353926181793213 1.762029767036438 0.28788796067237854
6.325023651123047 1.7837715148925781 0.28692835569381714
6.300854206085205 1.8066712617874146 0.2861868143081665
6.269891262054443 1.827437400817871 0.28513994812965393
6.24365758895874 1.8493865728378296 0.2843111753463745
6.215439319610596 1.8705658912658691 0.2833951711654663
6.1881103515625 1.8918262720108032 0.2825227677822113
6.163577079772949 1.9137728214263916 0.28178125619888306
6.138017177581787 1.9352408647537231 0.2809961140155792
6.113339424133301 1.9568268060684204 0.2802545726299286
6.089540481567383 1.9785432815551758 0.27955666184425354
6.06566858291626 2.000089168548584 0.2788587510585785
6.040777683258057 2.0211479663848877 0.27811723947525024
6.0177106857299805 2.0426695346832275 0.2774629294872284
5.990792751312256 2.062727451324463 0.27663418650627136
5.965701103210449 2.0832481384277344 0.2758926451206207
5.940544605255127 2.1035895347595215 0.2751511037349701
5.912503719329834 2.1227381229400635 0.2742787003517151
5.848735332489014 2.1286985874176025 0.271748811006546
0.0 0.0 0.0
5.038262844085693 1.8836712837219238 0.2348467856645584
4.973940372467041 1.8844001293182373 0.23222963511943817
7.461564064025879 2.8641395568847656 0.34895509481430054
7.356814861297607 2.860823392868042 0.34463679790496826
7.120244026184082 2.8046557903289795 0.33412450551986694
7.023496627807617 2.802009105682373 0.3301551640033722
6.913015842437744 2.7929587364196777 0.3255314826965332
8.523547172546387 3.4869751930236816 0.40208351612091064
6.505332946777344 2.6945204734802246 0.3074294626712799
6.450211524963379 2.7047219276428223 0.30537933111190796
6.428232669830322 2.728546619415283 0.30489951372146606
6.38322114944458 2.7423722743988037 0.3033292293548584
6.1659674644470215 2.6809654235839844 0.2935585081577301
6.027102470397949 2.65191650390625 0.28749537467956543
5.997220516204834 2.67006254196167 0.2866230010986328
7.177879810333252 3.2333126068115234 0.34372079372406006
5.805508613586426 2.6456525325775146 0.27855339646339417
5.768505573272705 2.659247398376465 0.277332067489624
5.58028507232666 2.6020615100860596 0.26882627606391907
5.433338642120361 2.562462329864502 0.2622833847999573
4.305763244628906 2.0536909103393555 0.20828257501125336
4.299461364746094 2.073760986328125 0.20841345191001892
6.558575630187988 3.1987500190734863 0.3185960054397583
5.049989223480225 2.490316390991211 0.24583886563777924
5.066791534423828 2.5261459350585938 0.24719107151031494
5.0610737800598145 2.5509278774261475 0.24745279550552368
7.731956481933594 3.9395313262939453 0.37887802720069885
3.8866567611694336 2.001710891723633 0.19087845087051392
0.0 0.0 0.0
4.650629043579102 2.4467551708221436 0.22943799197673798
3.539915084838867 1.882161021232605 0.17504459619522095
3.5413496494293213 1.9027904272079468 0.17552441358566284
0.0 0.0 0.0
5.505889415740967 3.0205631256103516 0.2741914689540863
5.403531074523926 2.9951558113098145 0.26974231004714966
5.363389015197754 3.0035717487335205 0.26839008927345276
5.375448703765869 3.0412113666534424 0.2696550488471985
5.349984645843506 3.05769681930542 0.2690443992614746
4.232588768005371 2.443629503250122 0.21338604390621185
3.1318938732147217 1.826424241065979 0.15829476714134216
3.1204516887664795 1.8380440473556519 0.1581202894449234
3.0943715572357178 1.8409152030944824 0.157204270362854
0.0 0.0 0.0
6.028262615203857 3.6579556465148926 0.3078656494617462
6.109353542327881 3.7437310218811035 0.31283825635910034
4.581614017486572 2.8351240158081055 0.23523935675621033
3.8244705200195312 2.389739751815796 0.19689792394638062
2.947110176086426 1.8594458103179932 0.1521444320678711
2.9423391819000244 1.874434232711792 0.15231890976428986
0.0 0.0 0.0
7.84421443939209 5.093976974487305 0.4083647131919861
5.285346984863281 3.465147018432617 0.2759362459182739
3.499844551086426 2.316444158554077 0.18324504792690277
3.4681060314178467 2.3172621726989746 0.1821109503507614
5.034958362579346 3.3960459232330322 0.26516225934028625
0.0 0.0 0.0
4.268234729766846 2.93341064453125 0.2261229008436203
0.0 0.0 0.0
2.5443387031555176 1.7815251350402832 0.13561268150806427
2.5340936183929443 1.7908800840377808 0.1354818195104599
0.0 0.0 0.0
3.214852809906006 2.3143110275268555 0.172950878739357
3.129556894302368 2.273705244064331 0.16889427602291107
3.064013957977295 2.246577739715576 0.16588453948497772
3.06221342086792 2.2658679485321045 0.16632072627544403
3.836785078048706 2.864999294281006 0.20906773209571838
0.0 0.0 0.0
5.072906017303467 3.857440948486328 0.2782480716705322
5.503055572509766 4.222548484802246 0.3028494119644165
5.43323278427124 4.206764221191406 0.3000141680240631
0.0 0.0 0.0
2.882533073425293 2.272355079650879 0.16025763750076294
0.0 0.0 0.0
0.0 0.0 0.0
0.0 0.0 0.0
0.0 0.0 0.0
2.1500322818756104 1.7723100185394287 0.12165447324514389
2.1384382247924805 1.7784802913665771 0.12143637984991074
2.131422996520996 1.7884361743927002 0.12147999554872513
6.32428503036499 5.353782653808594 0.36177921295166016
6.309221267700195 5.388463020324707 0.36225903034210205
3.153799295425415 2.717426300048828 0.1817619949579239
3.1539762020111084 2.741647958755493 0.18245990574359894
2.479485511779785 2.17440128326416 0.14398759603500366
2.4789535999298096 2.193143367767334 0.14451104402542114
2.479795455932617 2.213252067565918 0.1451217085123062
2.493130683898926 2.244774103164673 0.14647391438484192
2.4884889125823975 2.2603330612182617 0.14677925407886505
3.6210436820983887 3.317999839782715 0.21443292498588562
3.622671604156494 3.348686933517456 0.21539254486560822
0.0 0.0 0.0
2.9063761234283447 2.733983278274536 0.17421583831310272
2.8763020038604736 2.7294464111328125 0.17312535643577576
5.463150501251221 5.229709148406982 0.3301987648010254
5.347572326660156 5.1639723777771 0.3245718777179718
0.0 0.0 0.0
1.7315685749053955 1.7015684843063354 0.10599511116743088
1.7163230180740356 1.7013710737228394 0.10551530122756958
1.7046444416046143 1.7046051025390625 0.10525358468294144
3.1770451068878174 3.204817533493042 0.19702878594398499
5.0607099533081055 5.149696350097656 0.3152373135089874
4.948958873748779 5.080130577087402 0.3096540570259094
4.944096088409424 5.1196417808532715 0.3107445240020752
2.123023271560669 2.2176871299743652 0.1340423822402954
2.084442615509033 2.196492910385132 0.132210373878479
2.0638861656188965 2.1939241886138916 0.13151246309280396
4.7906270027160645 5.137197494506836 0.3066879212856293
2.4630892276763916 2.664492130279541 0.15842562913894653
2.457514524459839 2.6818430423736572 0.15881820023059845
0.0 0.0 0.0
4.575231552124023 5.081188201904297 0.29853108525276184
4.552351951599121 5.100357532501221 0.29848748445510864
4.5108561515808105 5.09847354888916 0.2972224950790405
4.470122814178467 5.097075939178467 0.2960011661052704
3.1651370525360107 3.6409859657287598 0.21063801646232605
3.1766107082366943 3.686548948287964 0.21247003972530365
3.203967332839966 3.751272678375244 0.21539254486560822
4.274621486663818 5.0492634773254395 0.28884759545326233
0.0 0.0 0.0
0.0 0.0 0.0
0.0 0.0 0.0
4.12579870223999 5.049600601196289 0.2847037613391876
1.7705062627792358 2.1863389015197754 0.12283220142126083
1.7553216218948364 2.187030792236328 0.12243962287902832
1.7302138805389404 2.1751224994659424 0.12134913355112076
1.6866886615753174 2.139500617980957 0.11895007640123367
1.6318209171295166 2.088582754135132 0.11572223901748657
1.3327728509902954 1.7212564945220947 0.09504664689302444
1.2711209058761597 1.6565148830413818 0.09116452187299728
1.260252594947815 1.6572740077972412 0.09090280532836914
1.2463957071304321 1.6539806127548218 0.09042299538850784
0.0 0.0 0.0
3.6773219108581543 4.969486713409424 0.2699167728424072
3.6473331451416016 4.974205017089844 0.26930609345436096
3.6115007400512695 4.970674514770508 0.2682592272758484
3.574601411819458 4.965303897857666 0.26712512969970703
3.5401389598846436 4.962960720062256 0.26616549491882324
0.0 0.0 0.0
2.9477219581604004 4.2096710205078125 0.22437812387943268
2.5016579627990723 3.6060285568237305 0.19161997735500336
2.4949543476104736 3.6300830841064453 0.1923178881406784
2.178271532058716 3.1991336345672607 0.16898150742053986
2.125185012817383 3.150630474090576 0.16592815518379211
2.124738931655884 3.1798095703125 0.1669750213623047
1.7507656812667847 2.645045518875122 0.13849155604839325
1.7090798616409302 2.606707811355591 0.13609249889850616
1.6770129203796387 2.582301616668701 0.13443496823310852
1.6608654260635376 2.5820322036743164 0.1340423822402954
3.1241698265075684 4.903826713562012 0.2538648247718811
1.3295949697494507 2.1072208881378174 0.10878676176071167
1.3140347003936768 2.1028354167938232 0.10826332122087479
1.3080012798309326 2.1136460304260254 0.10852503776550293
2.5354132652282715 4.137299537658691 0.21185937523841858
2.474837064743042 4.078287124633789 0.20828257501125336
2.202826738357544 3.6660122871398926 0.18673460185527802
0.0 0.0 0.0
1.2063111066818237 2.047849416732788 0.10377053171396255
1.197867512702942 2.0539562702178955 0.10381414741277695
1.1923909187316895 2.0652196407318115 0.10411947965621948
2.773751974105835 4.852912902832031 0.24405048787593842
1.749431848526001 3.0920164585113525 0.15511055290699005
1.7422701120376587 3.110952138900757 0.15567760169506073
2.6828677654266357 4.83987283706665 0.24160778522491455
0.8673791289329529 1.5809743404388428 0.07873299717903137
0.8619028329849243 1.587377905845642 0.07886385172605515
0.8563870787620544 1.5937635898590088 0.07899471372365952
0.8498938679695129 1.5983670949935913 0.07903832942247391
2.144028663635254 4.074997425079346 0.20104175806045532
2.111004114151001 4.055070400238037 0.19960232079029083
1.3298068046569824 2.581895589828491 0.12680156528949738
1.3067357540130615 2.5645294189453125 0.12566745281219482
1.2811439037322998 2.541658878326416 0.12427164614200592
1.2620174884796143 2.5311312675476074 0.1234864890575409
1.250077724456787 2.5348217487335205 0.12339925765991211
2.337862014770508 4.79316520690918 0.23284029960632324
1.6827878952026367 3.488661050796509 0.16911236941814423
1.6748619079589844 3.5112996101379395 0.16985391080379486
2.2169618606567383 4.700468063354492 0.22690805792808533
2.1850311756134033 4.685649871826172 0.22573032975196838
2.189661979675293 4.749575138092041 0.22834749519824982
2.175546407699585 4.773629665374756 0.22904542088508606
2.1481313705444336 4.768502712249756 0.22834749519824982
0.9069998264312744 2.0370805263519287 0.09735847264528275
0.9001146554946899 2.045590877532959 0.0975765660405159
0.893172562122345 2.05407977104187 0.09779466688632965
0.0 0.0 0.0
1.2815907001495361 3.0191237926483154 0.14320245385169983
1.2599053382873535 3.004417896270752 0.14224283397197723
0.642317533493042 1.5506316423416138 0.07328057289123535
0.6313842535018921 1.5432482957839966 0.07280075550079346
0.6231476068496704 1.5422834157943726 0.07262628525495529
0.6208548545837402 1.5561226606369019 0.07314971089363098
0.6129606366157532 1.5560282468795776 0.07301885634660721
1.831894040107727 4.710514545440674 0.22067047655582428
1.7998661994934082 4.688617706298828 0.21927466988563538
1.3280835151672363 3.5052695274353027 0.1636599451303482
1.3169749975204468 3.5222604274749756 0.1641833782196045
1.7366111278533936 4.707088470458984 0.21905657649040222
0.914409875869751 2.512211322784424 0.11672548204660416
0.9037772417068481 2.517117500305176 0.11676909774541855
0.8867827653884888 2.5040857791900635 0.11598395556211472
0.8676134943962097 2.484351634979248 0.11489346623420715
0.8515609502792358 2.4729998111724854 0.1141955554485321
0.8388356566429138 2.4710159301757812 0.11393384635448456
0.8286799192428589 2.4765470027923584 0.11402107775211334
0.0 0.0 0.0
0.0 0.0 0.0
0.0 0.0 0.0
0.0 0.0 0.0
1.4475895166397095 4.661766052246094 0.2131243348121643
1.4275271892547607 4.6689934730529785 0.2131679505109787
0.6040889620780945 2.0070641040802 0.09151347726583481
0.5947583317756653 2.007765054702759 0.09142624586820602
0.583755612373352 2.0026679039001465 0.0910772830247879
0.5703302621841431 1.9888702630996704 0.09033575654029846
0.5556804537773132 1.9701857566833496 0.08937612175941467
0.5452097058296204 1.9658527374267578 0.08907078951597214
0.536626935005188 1.9682128429412842 0.08907078951597214
1.2373372316360474 4.6175384521484375 0.20871877670288086
0.9068419337272644 3.4442245960235596 0.15550312399864197
0.8918051719665527 3.448148488998413 0.15550312399864197
1.1758060455322266 4.629465579986572 0.2085442990064621
0.8469369411468506 3.3966681957244873 0.15284234285354614
0.8325832486152649 3.4022722244262695 0.15292958915233612
0.8170305490493774 3.4029581546783447 0.15279872715473175
0.5807350277900696 2.4661319255828857 0.11061876267194748
0.5706433057785034 2.471562623977661 0.11074962466955185
0.5556642413139343 2.4555153846740723 0.10992086678743362
0.5406198501586914 2.4384090900421143 0.10904847085475922
0.5276433825492859 2.4300055503845215 0.10856866091489792
0.5164123773574829 2.4293529987335205 0.10843779891729355
0.5088594555854797 2.4462549686431885 0.1090920940041542
0.5698902606964111 2.8008878231048584 0.12479507178068161
0.584172785282135 2.9366073608398438 0.13072730600833893
0.572116494178772 2.9430510997772217 0.1309017837047577
0.8343387246131897 4.394231796264648 0.19528400897979736
0.8419227004051208 4.542230606079102 0.20169605314731598
0.8286738991737366 4.582236289978027 0.20330996811389923
0.5090420246124268 2.8866684436798096 0.12797929346561432
0.4967801868915558 2.890831232070923 0.1280665248632431
0.7638413906097412 4.56411600112915 0.2020450234413147
0.7442408204078674 4.569377422332764 0.20213225483894348
0.5301710367202759 3.3470423221588135 0.1479569673538208
0.22571031749248505 1.4663165807724 0.06477478891611099
0.21945790946483612 1.468275547027588 0.06481841206550598
0.21319268643856049 1.470207929611206 0.06486203521490097
0.20705382525920868 1.4731026887893677 0.06494927406311035
0.20075903832912445 1.4749821424484253 0.06499288976192474
0.0 0.0 0.0
0.5754927396774292 4.523192882537842 0.19907888770103455
0.5468621850013733 4.453274250030518 0.19589467346668243
0.5256645083427429 4.440736293792725 0.19524039328098297
0.5144272446632385 4.514456272125244 0.1983809918165207
0.496791273355484 4.535527229309082 0.19920974969863892
0.47637009620666504 4.5316901206970215 0.19894804060459137
0.19460991024971008 1.9323749542236328 0.08479609340429306
0.18636809289455414 1.9351946115493774 0.08488333225250244
0.17709964513778687 1.9270355701446533 0.08449075371026993
0.39468351006507874 4.510451316833496 0.19768306612968445
0.37499937415122986 4.512130260467529 0.19768306612968445
0.3549945056438446 4.509740352630615 0.19750860333442688
0.14010904729366302 1.884999394416809 0.08252788335084915
0.1322314590215683 1.890575885772705 0.0827459767460823
0.12633390724658966 1.9270236492156982 0.08431627601385117
0.1383005529642105 2.2606160640716553 0.09888515621423721
0.15421327948570251 2.7150332927703857 0.11873197555541992
0.141946941614151 2.7076990604400635 0.118383027613163
0.11493157595396042 2.3919589519500732 0.10455567389726639
0.10257557034492493 2.3485217094421387 0.1026364266872406
0.09495627880096436 2.4158313274383545 0.10555891692638397
0.09575106203556061 2.740715503692627 0.1197352260351181
0.08617260307073593 2.8189966678619385 0.12313754111528397
0.07395020127296448 2.8223419189453125 0.12326839566230774
0.09421881288290024 4.314859867095947 0.18843576312065125
0.07783418148756027 4.455075263977051 0.19454246759414673
0.05863035470247269 4.473353862762451 0.19532762467861176
0.013109876774251461 1.499514102935791 0.06547269970178604
0.00651882030069828 1.4885677099227905 0.06499288976192474
2.369769208598882e-05 1.4875829219818115 0.06494927406311035
-0.006458363961428404 1.4855707883834839 0.06486203521490097
-0.01290546078234911 1.481532335281372 0.06468755006790161
-0.05810905992984772 4.444386005401611 0.19406266510486603
-0.07763998210430145 4.452081203460693 0.19441162049770355
-0.09710849821567535 4.453697681427002 0.19449885189533234
-0.116514191031456 4.452232837677002 0.19445523619651794
-0.1354515552520752 4.435705184936523 0.1937573403120041
-0.0 0.0 0.0
-0.07543297857046127 1.920688271522522 0.08392370492219925
-0.08442262560129166 1.9343141317367554 0.08453437685966492
-0.09319719672203064 1.9409126043319702 0.08483970910310745
