# .PCD v0.7 - Point Cloud Data file format
VERSION 0.7
FIELDS x y z
SIZE 4 4 4
TYPE F F F
COUNT 1 1 1
WIDTH 995
HEIGHT 1
VIEWPOINT 0 0 0 1 0 0 0
POINTS 995
DATA ascii
2.7486374378204346 1.082685112953186 -0.1289825439453125
2.7429590225219727 1.0942976474761963 -0.12893891334533691
2.741863489151001 1.1077525615692139 -0.12911339104175568
2.7397778034210205 1.1208405494689941 -0.12924425303936005
2.7320921421051025 1.131637454032898 -0.12911339104175568
2.7216007709503174 1.1412296295166016 -0.12885168194770813
2.7156753540039062 1.1527036428451538 -0.12880805134773254
2.708784341812134 1.1637532711029053 -0.12872081995010376
2.7036807537078857 1.175561547279358 -0.12872081995010376
2.7003543376922607 1.1881519556045532 -0.12880805134773254
2.6896681785583496 1.197485089302063 -0.1285463273525238
2.68259596824646 1.2083890438079834 -0.12845909595489502
2.6727521419525146 1.2180110216140747 -0.12824100255966187
2.6592466831207275 1.225897192955017 -0.12784843146800995
2.651155948638916 1.2362220287322998 -0.12771756947040558
2.6448330879211426 1.247351884841919 -0.1276739537715912
2.644775629043579 1.261460781097412 -0.12793566286563873
2.6500446796417236 1.278197169303894 -0.12845909595489502
2.6507279872894287 1.2928135395050049 -0.12876443564891815
2.645061731338501 1.304367184638977 -0.12876443564891815
2.632192611694336 1.3123300075531006 -0.12841548025608063
2.623764991760254 1.3224536180496216 -0.12828463315963745
2.621530294418335 1.3357034921646118 -0.12845909595489502
2.6210062503814697 1.3498739004135132 -0.12872081995010376
2.615091562271118 1.361297369003296 -0.12872081995010376
2.6082425117492676 1.3722295761108398 -0.12867718935012817
2.600466251373291 1.3826591968536377 -0.1285899579524994
2.5952885150909424 1.394465446472168 -0.12863357365131378
2.583911180496216 1.4029160737991333 -0.12837186455726624
2.5672545433044434 1.408410906791687 -0.12784843146800995
2.5558419227600098 1.416693091392517 -0.1275867074728012
2.540919542312622 1.422950029373169 -0.1271505206823349
2.528599977493286 1.4305795431137085 -0.12684518098831177
2.525803327560425 1.4435819387435913 -0.12701965868473053
2.524671792984009 1.4575860500335693 -0.12728138267993927
2.5269179344177246 1.473620891571045 -0.12771756947040558
2.529933214187622 1.4902100563049316 -0.12819738686084747
2.5251240730285645 1.5022563934326172 -0.12828463315963745
2.5159761905670166 1.5117162466049194 -0.12815377116203308
2.506793737411499 1.5211248397827148 -0.1280229091644287
2.48991060256958 1.5257842540740967 -0.12749947607517242
2.4721853733062744 1.5297998189926147 -0.12693241238594055
2.4620981216430664 1.538454532623291 -0.12675794959068298
2.4578967094421387 1.5507819652557373 -0.12688879668712616
2.452792167663574 1.5625653266906738 -0.12697604298591614
2.4417495727539062 1.5705504417419434 -0.12675794959068298
2.437387228012085 1.5828218460083008 -0.12688879668712616
2.4346349239349365 1.5961805582046509 -0.12710689008235931
2.427647113800049 1.6067882776260376 -0.12710689008235931
2.418121337890625 1.615700602531433 -0.12697604298591614
2.4044225215911865 1.6217668056488037 -0.1266270875930786
2.3964974880218506 1.6316803693771362 -0.12658347189426422
2.3967654705047607 1.6472141742706299 -0.12697604298591614
2.3961222171783447 1.6622117757797241 -0.12732499837875366
2.4043960571289062 1.6835384368896484 -0.12815377116203308
2.411713123321533 1.7043920755386353 -0.12893891334533691
2.396933078765869 1.7096774578094482 -0.1285463273525238
2.3724234104156494 1.7078622579574585 -0.1276303380727768
2.356058359146118 1.7117382287979126 -0.1271505206823349
2.3469557762145996 1.7208205461502075 -0.12706327438354492
2.3386218547821045 1.7304503917694092 -0.12701965868473053
2.3278472423553467 1.738247036933899 -0.12684518098831177
2.3242299556732178 1.7513936758041382 -0.12706327438354492
2.3173611164093018 1.7621229887008667 -0.12710689008235931
2.3048949241638184 1.768568515777588 -0.12684518098831177
2.2939963340759277 1.776162028312683 -0.126670703291893
2.2783520221710205 1.7800037860870361 -0.1262345016002655
2.264286994934082 1.784980058670044 -0.12588556110858917
2.254913330078125 1.7935988903045654 -0.1257983148097992
2.239274501800537 1.7971675395965576 -0.12536212801933289
2.2166597843170166 1.7949753999710083 -0.12453334778547287
2.177086591720581 1.7787145376205444 -0.12274496257305145
2.1484904289245605 1.7710392475128174 -0.1215672418475151
2.139974355697632 1.7797578573226929 -0.12152361124753952
2.1543827056884766 1.8077012300491333 -0.12278857827186584
2.1785004138946533 1.8441952466964722 -0.12462059408426285
2.1825878620147705 1.8640642166137695 -0.1253184974193573
2.1751904487609863 1.8742218017578125 -0.12536212801933289
2.1662380695343018 1.8830395936965942 -0.1253184974193573
2.1647613048553467 1.8984019756317139 -0.1257110834121704
2.169177770614624 1.9190829992294312 -0.12645260989665985
2.170473098754883 1.9371776580810547 -0.12701965868473053
2.180561065673828 1.9633415937423706 -0.1281101405620575
2.173452854156494 1.9741809368133545 -0.12819738686084747
2.1397743225097656 1.9606975317001343 -0.1267143338918686
2.1150591373443604 1.9550961256027222 -0.1257546991109848
2.0999321937561035 1.9581739902496338 -0.12536212801933289
2.0906405448913574 1.9666334390640259 -0.1253184974193573
2.085663080215454 1.9791752099990845 -0.12553659081459045
2.0777292251586914 1.9889476299285889 -0.12558022141456604
2.067593812942505 1.9966063499450684 -0.12549297511577606
1.9414993524551392 1.8912816047668457 -0.11833939701318741
1.7707605361938477 1.740081548690796 -0.10839418321847916
1.7354800701141357 1.7203612327575684 -0.10669302195310593
1.7851788997650146 1.78513765335083 -0.11022619903087616
1.996819019317627 2.0142743587493896 -0.12383545190095901
2.02862548828125 2.0642964839935303 -0.12636536359786987
2.018902063369751 2.0724127292633057 -0.12632174789905548
2.0140042304992676 2.0855138301849365 -0.12658347189426422
2.0104122161865234 2.100054979324341 -0.12693241238594055
2.0053563117980957 2.1131551265716553 -0.1271941363811493
1.9879024028778076 2.1131527423858643 -0.126670703291893
1.956859827041626 2.09842586517334 -0.1252748817205429
1.94022536277771 2.09887433052063 -0.12479507178068161
1.9290239810943604 2.1051104068756104 -0.12466420978307724
1.9151183366775513 2.108330726623535 -0.1243588775396347
1.905232310295105 2.115924596786499 -0.12431526184082031
1.8906599283218384 2.1182548999786377 -0.12396630644798279
1.8701452016830444 2.1137640476226807 -0.12322477251291275
1.8556346893310547 2.1158950328826904 -0.12287581712007523
1.8470401763916016 2.124725580215454 -0.12291943281888962
1.8351433277130127 2.129737138748169 -0.12274496257305145
1.823886513710022 2.1354448795318604 -0.12261410057544708
1.8190703392028809 2.1487202644348145 -0.12291943281888962
1.8160994052886963 2.164289951324463 -0.12335562705993652
1.8091939687728882 2.1752660274505615 -0.12353010475635529
1.795872688293457 2.178514242172241 -0.12326839566230774
1.776868224143982 2.1747243404388428 -0.12261410057544708
1.7585601806640625 2.1715872287750244 -0.12200343608856201
1.749068260192871 2.179239511489868 -0.12200343608856201
1.7134218215942383 2.154012680053711 -0.12017141282558441
1.6736997365951538 2.1230247020721436 -0.11803406476974487
1.6318209171295166 2.088582754135132 -0.11572223901748657
1.3015789985656738 1.6809700727462769 -0.09282205253839493
1.277202844619751 1.6644407510757446 -0.09160071611404419
1.2650903463363647 1.6636357307434082 -0.09125176072120667
0.0 0.0 -0.0
1.6940661668777466 2.268571376800537 -0.12361734360456467
1.6918771266937256 2.286381483078003 -0.12418439984321594
1.6771588325500488 2.2872965335845947 -0.12383545190095901
1.664813756942749 2.2913596630096436 -0.12366096675395966
1.6524652242660522 2.295358657836914 -0.1234864890575409
1.6401135921478271 2.2992937564849854 -0.12331201136112213
1.6294889450073242 2.305612325668335 -0.12326839566230774
1.618267297744751 2.311063528060913 -0.12318115681409836
1.6075986623764038 2.317281723022461 -0.12313754111528397
1.6008676290512085 2.329214096069336 -0.12339925765991211
1.5968743562698364 2.3452606201171875 -0.12387906759977341
1.5922129154205322 2.3604884147644043 -0.12431526184082031
1.590224027633667 2.379873275756836 -0.12496955692768097
1.5864417552947998 2.3967862129211426 -0.12549297511577606
1.575968861579895 2.4036853313446045 -0.12549297511577606
1.5513185262680054 2.388754367828369 -0.1243588775396347
1.4473795890808105 2.250140428543091 -0.11681272834539413
1.3548805713653564 2.1266767978668213 -0.11009533703327179
1.3279955387115479 2.1046862602233887 -0.1086558997631073
1.3426235914230347 2.148585796356201 -0.11061876267194748
1.4352264404296875 2.3192336559295654 -0.11908092349767685
1.474684476852417 2.4063971042633057 -0.12322477251291275
1.4709084033966064 2.4239118099212646 -0.12379182130098343
1.4556872844696045 2.4225997924804688 -0.12339925765991211
1.3649044036865234 2.294130802154541 -0.11655101180076599
1.2357208728790283 2.09777569770813 -0.10630045086145401
1.2054171562194824 2.066901445388794 -0.1044684424996376
1.216368556022644 2.1067490577697754 -0.10621321201324463
1.3335824012756348 2.33321475982666 -0.11733615398406982
1.3917725086212158 2.4598748683929443 -0.12339925765991211
1.386884093284607 2.476383924484253 -0.1239226832985878
1.3576600551605225 2.4492080211639404 -0.12226515263319016
0.8774705529212952 1.5993679761886597 -0.07964900135993958
0.8666699528694153 1.5961575508117676 -0.07930004596710205
0.8582785725593567 1.5972837209701538 -0.07916919142007828
0.8536461591720581 1.605423927307129 -0.07938728481531143
0.8508197665214539 1.6170907020568848 -0.07977986335754395
1.3069220781326294 2.510493040084839 -0.12357372790575027
1.2877215147018433 2.5001845359802246 -0.12278857827186584
1.2699966430664062 2.492427110671997 -0.12213429063558578
1.2586596012115479 2.4970524311065674 -0.1220906674861908
1.2499812841415405 2.506990909576416 -0.12230876833200455
1.2474265098571777 2.5294456481933594 -0.12313754111528397
1.244699239730835 2.5519251823425293 -0.12396630644798279
1.2383270263671875 2.567229986190796 -0.12444611638784409
1.229264259338379 2.5771172046661377 -0.12466420978307724
1.2192864418029785 2.5851669311523438 -0.12479507178068161
1.208417296409607 2.5913681983947754 -0.1248386949300766
1.1966805458068848 2.5957086086273193 -0.12479507178068161
1.1339688301086426 2.4881784915924072 -0.11938627064228058
0.9466550350189209 2.1014204025268555 -0.10062993317842484
0.9135016202926636 2.0516834259033203 -0.09805639088153839
0.9170144200325012 2.0839970111846924 -0.0994085818529129
1.0413706302642822 2.394899368286133 -0.11402107775211334
1.1492252349853516 2.6747937202453613 -0.12710689008235931
1.1465219259262085 2.7009339332580566 -0.1281101405620575
1.1204309463500977 2.6718220710754395 -0.12649622559547424
0.6442292332649231 1.5552465915679932 -0.0734986662864685
0.6359239220619202 1.5543441772460938 -0.07332419604063034
0.6283872723579407 1.5552514791488647 -0.07323695719242096
0.625297486782074 1.5672577619552612 -0.07367315143346786
0.6261425614356995 1.5894911289215088 -0.07458915561437607
1.0504693984985352 2.701166868209839 -0.12653984129428864
1.042253851890564 2.7150518894195557 -0.12697604298591614
1.0296894311904907 2.717705011367798 -0.12688879668712616
1.0178215503692627 2.7221720218658447 -0.12688879668712616
0.9931396842002869 2.6919074058532715 -0.1252748817205429
0.9437967538833618 2.5929477214813232 -0.12047675251960754
0.9115422964096069 2.5387439727783203 -0.11777234822511673
0.8887837529182434 2.5097362995147705 -0.11624567210674286
0.8662959337234497 2.480578899383545 -0.11471899598836899
0.8502599000930786 2.469221353530884 -0.11402107775211334
0.8516814708709717 2.508856773376465 -0.11567862331867218
0.8870108127593994 2.650871753692627 -0.1220470517873764
0.9104783535003662 2.760981321334839 -0.12693241238594055
0.9055236577987671 2.786781072616577 -0.12793566286563873
0.8924417495727539 2.787851095199585 -0.12780480086803436
0.8808699250221252 2.79362416267395 -0.12789204716682434
0.0 0.0 -0.0
0.0 0.0 -0.0
0.606968343257904 2.0166306495666504 -0.09194967150688171
0.5990146994590759 2.0221335887908936 -0.09208052605390549
0.5868309736251831 2.013218641281128 -0.0915571004152298
0.5700548887252808 1.9879099130630493 -0.09029214084148407
0.5586636066436768 1.9807628393173218 -0.08985594660043716
0.5484136939048767 1.977405309677124 -0.08959423005580902
0.5431968569755554 1.992309808731079 -0.0901612788438797
0.0 0.0 -0.0
0.7453146576881409 2.8307371139526367 -0.12780480086803436
0.7332064509391785 2.8349294662475586 -0.12784843146800995
0.7210757732391357 2.8390698432922363 -0.12789204716682434
0.7106149196624756 2.8499441146850586 -0.12824100255966187
0.6950858235359192 2.840402126312256 -0.1276739537715912
0.6393036246299744 2.662720203399658 -0.11956074833869934
0.5898949503898621 2.5050301551818848 -0.1123635470867157
0.5740146040916443 2.4861643314361572 -0.1114039197564125
0.5746273994445801 2.5393147468566895 -0.11367212980985641
0.5542435646057129 2.499857187271118 -0.11179649829864502
0.5282793641090393 2.432934522628784 -0.10869951546192169
0.5186973810195923 2.4401025772094727 -0.10891761630773544
0.5290022492408752 2.543087959289551 -0.11341041326522827
0.580248236656189 2.851795196533203 -0.12706327438354492
0.5752065181732178 2.8915343284606934 -0.12872081995010376
0.5629656910896301 2.8959779739379883 -0.12880805134773254
0.5508834719657898 2.9013512134552 -0.12893891334533691
0.5367621779441833 2.895869016647339 -0.1285899579524994
0.5200324058532715 2.8755719661712646 -0.1275867074728012
0.5053985118865967 2.866007089614868 -0.12706327438354492
0.4955957531929016 2.883938789367676 -0.12776118516921997
0.48647063970565796 2.906766176223755 -0.12867718935012817
0.47458598017692566 2.9137914180755615 -0.12889529764652252
0.45967957377433777 2.902020215988159 -0.12828463315963745
0.2272302657365799 1.4761908054351807 -0.0652109906077385
0.2204916775226593 1.4751920700073242 -0.06512374430894852
0.2133360505104065 1.4711965322494507 -0.06490565091371536
0.20761004090309143 1.4770599603652954 -0.06512374430894852
0.20170219242572784 1.481911540031433 -0.06529822945594788
0.39451146125793457 2.996260404586792 -0.13194864988327026
0.3801732361316681 2.9880425930023193 -0.13151246309280396
0.36713191866874695 2.989672899246216 -0.13151246309280396
0.3545534014701843 2.9952147006988525 -0.13168692588806152
0.3417072594165802 2.998718738555908 -0.1317741721868515
0.3288373351097107 3.0021674633026123 -0.13186141848564148
0.20272623002529144 1.928526759147644 -0.08466523140668869
0.19511045515537262 1.937345027923584 -0.08501418679952621
0.18617656826972961 1.9332057237625122 -0.08479609340429306
0.17773966491222382 1.9339996576309204 -0.08479609340429306
0.16999608278274536 1.942718744277954 -0.08514504879713058
0.25179240107536316 3.029658794403076 -0.1327338069677353
0.14958691596984863 1.9003057479858398 -0.0832257941365242
0.14077553153038025 1.8939661979675293 -0.08292046189308167
0.13299822807312012 1.9015387296676636 -0.0832257941365242
0.12966708838939667 1.9778659343719482 -0.08654087036848068
0.14556026458740234 2.3792808055877686 -0.10407586395740509
0.1548364758491516 2.7260050773620605 -0.11921178549528122
0.1400117576122284 2.6707847118377686 -0.11676909774541855
0.11483568698167801 2.389963388442993 -0.1044684424996376
0.10292431712150574 2.35650634765625 -0.10298537462949753
0.09683971852064133 2.4637489318847656 -0.10765265673398972
0.09791374206542969 2.8026185035705566 -0.12243962287902832
0.0864778533577919 2.828982353210449 -0.12357372790575027
0.07675014436244965 2.9292030334472656 -0.12793566286563873
0.06647660583257675 3.0443732738494873 -0.13295190036296844
0.053681157529354095 3.072603702545166 -0.13417324423789978
0.040378741919994354 3.0808002948760986 -0.1345221996307373
0.012978865765035152 1.4845290184020996 -0.06481841206550598
0.006527570076286793 1.4905657768249512 -0.06508012861013412
2.3761351258144714e-05 1.4915790557861328 -0.06512374430894852
-0.006510482169687748 1.4975591897964478 -0.06538546085357666
-0.013088208623230457 1.5025116205215454 -0.06560356169939041
-0.019630907103419304 1.501441240310669 -0.06555993854999542
-0.054140690714120865 3.104569911956787 -0.13556905090808868
-0.06757740676403046 3.0993101596832275 -0.13535095751285553
-0.08115221560001373 3.1009833812713623 -0.1354382038116455
-0.09510882198810577 3.114579916000366 -0.13604888319969177
-0.1095341145992279 3.1380977630615234 -0.13709573447704315
-0.07598186284303665 1.9346641302108765 -0.08453437685966492
-0.08429194241762161 1.9313198328018188 -0.08440351486206055
-0.09295761585235596 1.9359230995178223 -0.0846216157078743
-0.10532396286725998 2.0103251934051514 -0.08789306879043579
-0.0 0.0 -0.0
-0.0 0.0 -0.0
-0.15697509050369263 2.395575523376465 -0.10481739044189453
-0.16429084539413452 2.350019931793213 -0.10285451263189316
-0.1704719066619873 2.2944841384887695 -0.10045545548200607
-0.15618765354156494 1.9849679470062256 -0.0869334414601326
-0.15773382782936096 1.8986443281173706 -0.08318217098712921
-0.16532018780708313 1.889975905418396 -0.08283321559429169
-0.17347373068332672 1.8882417678833008 -0.0827895998954773
-0.30454304814338684 3.163346767425537 -0.138753280043602
-0.31844282150268555 3.1629817485809326 -0.13879689574241638
-0.33244961500167847 3.1635494232177734 -0.13888414204120636
-0.34592366218566895 3.1590895652770996 -0.138753280043602
-0.35993051528930664 3.1595351696014404 -0.13884051144123077
-0.3739478588104248 3.159919023513794 -0.13892775774002075
-0.38797539472579956 3.1602401733398438 -0.13901498913764954
-0.4012564718723297 3.154553174972534 -0.13884051144123077
-0.41462573409080505 3.1498007774353027 -0.1387096494436264
-0.42823055386543274 3.1469719409942627 -0.138666033744812
-0.44181859493255615 3.1440842151641846 -0.13862241804599762
-0.4566796123981476 3.150036096572876 -0.13897137343883514
-0.4724869430065155 3.16184663772583 -0.13958203792572021
-0.4873422384262085 3.1666669845581055 -0.13988737761974335
-0.5009983777999878 3.1635236740112305 -0.13984376192092896
-0.5183295607566833 3.1830008029937744 -0.14080338180065155
-0.5369943380355835 3.2092840671539307 -0.14206835627555847
-0.5523455739021301 3.214787244796753 -0.1424172967672348
-0.5641123056411743 3.199556350708008 -0.14185024797916412
-0.0419507771730423 0.2320133000612259 -0.010294175706803799
-0.04369090124964714 0.23575733602046967 -0.010468653403222561
-0.043414853513240814 0.22869382798671722 -0.010163317434489727
-0.043078020215034485 0.22163733839988708 -0.009857981465756893
-0.04384978860616684 0.22046741843223572 -0.009814362041652203
-0.04680294916033745 0.23006394505500793 -0.010250556282699108
-0.05085780471563339 0.24452927708625793 -0.010904846712946892
-0.052962757647037506 0.24919116497039795 -0.01112294476479292
-0.05171799659729004 0.23821835219860077 -0.010643131099641323
-0.05167583376169205 0.23311357200145721 -0.01042503397911787
-0.052692484110593796 0.23288586735725403 -0.01042503397911787
-0.053033970296382904 0.229733407497406 -0.010294175706803799
-0.053806889802217484 0.22852735221385956 -0.010250556282699108
-0.05410388857126236 0.22537605464458466 -0.010119698010385036
-0.054136984050273895 0.22125615179538727 -0.009945221245288849
-0.05437684431672096 0.21810971200466156 -0.009814362041652203
-0.05409849062561989 0.21302880346775055 -0.009596265852451324
-0.05452723056077957 0.21085627377033234 -0.009509027004241943
-0.059261880815029144 0.2251082956790924 -0.010163317434489727
-0.06308764219284058 0.23546269536018372 -0.010643131099641323
-0.06358890980482101 0.2332574427127838 -0.010555892251431942
-0.06460607051849365 0.2329777628183365 -0.010555892251431942
-0.0656220018863678 0.2326936423778534 -0.010555892251431942
-0.06608597189188004 0.23048439621925354 -0.010468653403222561
-0.06625237315893173 0.22731643915176392 -0.01033779513090849
-0.06752730906009674 0.22798308730125427 -0.01038141455501318
-0.06823352724313736 0.2267296314239502 -0.01033779513090849
-0.06980631500482559 0.22834055125713348 -0.01042503397911787
-0.07080196589231491 0.22803378105163574 -0.01042503397911787
-0.07239707559347153 0.229628324508667 -0.010512272827327251
-0.07400742918252945 0.23121322691440582 -0.010599511675536633
-0.0734720379114151 0.22613731026649475 -0.01038141455501318
-0.07383234798908234 0.22391699254512787 -0.010294175706803799
-0.07227277010679245 0.21601329743862152 -0.009945221245288849
-0.06871897727251053 0.2024514079093933 -0.009334549307823181
-0.0722036063671112 0.2097066342830658 -0.009683504700660706
-0.07575280964374542 0.2169351577758789 -0.010032459162175655
-0.07436433434486389 0.2100103199481964 -0.009727123193442822
-0.07494238018989563 0.20874355733394623 -0.009683504700660706
-0.07858589291572571 0.21592500805854797 -0.010032459162175655
-0.07987306267023087 0.216517373919487 -0.010076078586280346
-0.08011731505393982 0.21429522335529327 -0.00998884066939354
-0.08423701673746109 0.22235186398029327 -0.01038141455501318
-0.08305834233760834 0.21638602018356323 -0.010119698010385036
-0.0 0.0 -0.0
-0.0 0.0 -0.0
-0.0 0.0 -0.0
-0.0 0.0 -0.0
-0.0 0.0 -0.0
-0.0 0.0 -0.0
-0.0 0.0 -0.0
-0.0 0.0 -0.0
-0.0 0.0 -0.0
-0.0 0.0 -0.0
-0.0 0.0 -0.0
-0.0 0.0 -0.0
-0.0 0.0 -0.0
-0.0 0.0 -0.0
-0.0 0.0 -0.0
-0.0 0.0 -0.0
-0.0 0.0 -0.0
-0.0 0.0 -0.0
-0.0 0.0 -0.0
-0.0 0.0 -0.0
-0.0 0.0 -0.0
-0.0 0.0 -0.0
-0.0 0.0 -0.0
-0.0 0.0 -0.0
-0.0 0.0 -0.0
-1.1001832485198975 2.11352801322937 -0.1040322482585907
-0.0 0.0 -0.0
-0.0 0.0 -0.0
-0.0 0.0 -0.0
-0.0 0.0 -0.0
-0.0 0.0 -0.0
-0.0 0.0 -0.0
-0.0 0.0 -0.0
-1.171305775642395 2.070366621017456 -0.10385776311159134
-0.0 0.0 -0.0
-0.0 0.0 -0.0
-0.0 0.0 -0.0
-0.0 0.0 -0.0
-0.0 0.0 -0.0
-0.0 0.0 -0.0
-1.5195481777191162 2.504244565963745 -0.12789204716682434
-0.0 0.0 -0.0
-0.0 0.0 -0.0
-0.0 0.0 -0.0
-1.0667144060134888 1.6907111406326294 -0.08728239685297012
-1.0789121389389038 1.6936239004135132 -0.08767496794462204
-1.087912917137146 1.6914209127426147 -0.08780582994222641
-1.0941946506500244 1.6849822998046875 -0.08771859109401703
-1.6153308153152466 2.4638917446136475 -0.12863357365131378
-1.6850653886795044 2.545961856842041 -0.13330085575580597
-1.9076229333877563 2.8550777435302734 -0.14991983771324158
-1.937380313873291 2.872403144836426 -0.15127204358577728
-1.9229066371917725 2.8242833614349365 -0.14917831122875214
-1.9827431440353394 2.8850278854370117 -0.15284234285354614
-2.1012279987335205 3.0290322303771973 -0.1609555333852768
-2.156254768371582 3.0795772075653076 -0.1641397625207901
-2.165635108947754 3.0644283294677734 -0.16383442282676697
-2.156940460205078 3.0240423679351807 -0.16217689216136932
-0.0 0.0 -0.0
-1.1380133628845215 1.5664048194885254 -0.08453437685966492
-1.143655776977539 1.5598130226135254 -0.08444713801145554
-1.1718435287475586 1.5837198495864868 -0.0860174372792244
-1.506901502609253 2.0180675983428955 -0.10996448248624802
-1.5343304872512817 2.036207914352417 -0.11131668090820312
-0.0 0.0 -0.0
-1.8342303037643433 2.390512228012085 -0.13155607879161835
-1.836692452430725 2.3722169399261475 -0.13098903000354767
-1.696335792541504 2.1712985038757324 -0.12030227482318878
-1.573436975479126 1.9959756135940552 -0.1109677255153656
-1.5709365606307983 1.9750174283981323 -0.11018257588148117
-0.0 0.0 -0.0
-2.285975694656372 2.8230583667755127 -0.1586000919342041
-0.0 0.0 -0.0
-1.921623945236206 2.331209897994995 -0.13190503418445587
-0.0 0.0 -0.0
-0.14512832462787628 0.17296414077281952 -0.009857981465756893
-0.14652712643146515 0.17309178411960602 -0.009901601821184158
-0.1738823801279068 0.203598290681839 -0.011689996346831322
-0.20346252620220184 0.23613935708999634 -0.013609249144792557
-0.21366681158542633 0.24580541253089905 -0.01421992015093565
-0.22132433950901031 0.25238215923309326 -0.01465611532330513
-0.22904318571090698 0.2588966190814972 -0.015092308633029461
-0.23083586990833282 0.2586401104927063 -0.015135927125811577
-0.2299567610025406 0.2554031014442444 -0.01500506978482008
-0.23174068331718445 0.2551368474960327 -0.015048690140247345
-0.23487649857997894 0.25633302330970764 -0.015179547481238842
-0.23463644087314606 0.2538384795188904 -0.015092308633029461
-0.2357417792081833 0.2528122663497925 -0.015092308633029461
-0.23547358810901642 0.25032588839530945 -0.01500506978482008
-0.2338128536939621 0.24639727175235748 -0.014830592088401318
-0.23281322419643402 0.24320966005325317 -0.014699733816087246
-0.23456619679927826 0.2429102063179016 -0.014743354171514511
-0.2349267154932022 0.2411687672138214 -0.014699733816087246
-0.2345762997865677 0.2387162297964096 -0.014612494967877865
-0.23702232539653778 0.23910950124263763 -0.014699733816087246
-0.23594410717487335 0.2359536737203598 -0.014568876475095749
-0.23768088221549988 0.2356252819299698 -0.014612494967877865
-0.23799417912960052 0.2338857203722 -0.014568876475095749
-0.23758120834827423 0.23145078122615814 -0.014481637626886368
-0.23715154826641083 0.22902391850948334 -0.014394397847354412
-0.2367052584886551 0.22660523653030396 -0.014307158999145031
-0.236242413520813 0.22419483959674835 -0.01421992015093565
-0.23867371678352356 0.22453100979328156 -0.014307158999145031
-0.23892050981521606 0.22280611097812653 -0.014263540506362915
-0.2384231686592102 0.22040517628192902 -0.014176301658153534
-0.24011914432048798 0.22003771364688873 -0.01421992015093565
-0.20938676595687866 -0.1918676197528839 0.0
-0.20854760706424713 -0.19277940690517426 0.0
-0.20404769480228424 -0.19027754664421082 0.0
-0.20321552455425262 -0.19116604328155518 0.0
-0.20673173666000366 -0.196181058883667 0.0
-0.2029843032360077 -0.19431515038013458 0.0
-0.20645055174827576 -0.19936692714691162 0.0
-0.20629501342773438 -0.20096363127231598 0.0
-0.19828368723392487 -0.19485275447368622 0.0
-0.19885194301605225 -0.19712407886981964 0.0
-0.19657574594020844 -0.19657565653324127 0.0
-0.19078806042671204 -0.19246020913124084 0.0
-0.18433919548988342 -0.18758481740951538 0.0
-0.1807277947664261 -0.1855221539735794 0.0
-0.17922192811965942 -0.18558961153030396 0.0
-0.17495287954807281 -0.18275803327560425 0.0
-0.17071200907230377 -0.17989277839660645 0.0
-0.1671847403049469 -0.17772245407104492 0.0
-0.1650436967611313 -0.17698752880096436 0.0
-0.16426987946033478 -0.17770597338676453 0.0
-0.1628173291683197 -0.1776837706565857 0.0
-0.16002339124679565 -0.17617183923721313 0.0
-0.16059145331382751 -0.1783546805381775 0.0
-0.15914581716060638 -0.17830762267112732 0.0
-0.15836630761623383 -0.17900033295154572 0.0
-0.15758375823497772 -0.17968961596488953 0.0
-0.15679822862148285 -0.18037550151348114 0.0
-0.15535694360733032 -0.18030036985874176 0.0
-0.15586766600608826 -0.18249733746051788 0.0
-0.15506988763809204 -0.1831756830215454 0.0
-0.15426917374134064 -0.18385055661201477 0.0
-0.15346550941467285 -0.18452192842960358 0.0
-0.15265892446041107 -0.18518978357315063 0.0
-0.15121673047542572 -0.18507972359657288 0.0
-0.14851976931095123 -0.18340633809566498 0.0
-0.14896994829177856 -0.18561238050460815 0.0
-0.14815865457057953 -0.18626061081886292 0.0
-0.14672544598579407 -0.18611998856067657 0.0
-0.14652760326862335 -0.18754643201828003 0.0
-0.1438712477684021 -0.18581192195415497 0.0
-0.1430591344833374 -0.18643790483474731 0.0
-0.14466546475887299 -0.19024433195590973 0.0
-0.1444358080625534 -0.19167238473892212 0.0
-0.14359810948371887 -0.19230076670646667 0.0
-0.14335250854492188 -0.19372935593128204 0.0
-0.1448710858821869 -0.1975787729024887 0.0
-0.14341983199119568 -0.19740000367164612 0.0
-0.14197289943695068 -0.1972123235464096 0.0
-0.1382075399160385 -0.19375933706760406 0.0
-0.13793793320655823 -0.19517716765403748 0.0
-0.13651143014431 -0.19495801627635956 0.0
-0.13223949074745178 -0.19062192738056183 0.0
-0.13480493426322937 -0.19614186882972717 0.0
-0.136761873960495 -0.2008611410856247 0.0
-0.13756172358989716 -0.20394305884838104 0.0
-0.1338927000761032 -0.2003840059041977 0.0
-0.13080935180187225 -0.19763077795505524 0.0
-0.13159066438674927 -0.20070849359035492 0.0
-0.1279904693365097 -0.19708740711212158 0.0
-0.12821124494075775 -0.1993260681629181 0.0
-0.12680301070213318 -0.19904020428657532 0.0
-0.1211307942867279 -0.1919800490140915 0.0
-0.12188173085451126 -0.19505088031291962 0.0
-0.12260815501213074 -0.19813188910484314 0.0
-0.11756248772144318 -0.19184385240077972 0.0
-0.11828062683343887 -0.19491973519325256 0.0
-0.12515459954738617 -0.20829147100448608 0.0
-0.12168809771537781 -0.2045385241508484 0.0
-0.11927185952663422 -0.202482670545578 0.0
-0.12342498451471329 -0.21163949370384216 0.0
-0.12100037187337875 -0.20957794785499573 0.0
-0.11760368198156357 -0.20576292276382446 0.0
-0.11670476198196411 -0.2062741070985794 0.0
-0.11482636630535126 -0.20503637194633484 0.0
-0.11393064260482788 -0.20553544163703918 0.0
-0.11447571218013763 -0.2086607664823532 0.0
-0.11260986328125 -0.2074006348848343 0.0
-0.11217716336250305 -0.20877090096473694 0.0
-0.11079569905996323 -0.20837543904781342 0.0
-0.11081667244434357 -0.21062684059143066 0.0
-0.11174359172582626 -0.21465641260147095 0.0
-0.10851654410362244 -0.21069686114788055 0.0
-0.1057802140712738 -0.207604318857193 0.0
-0.10577356815338135 -0.20984984934329987 0.0
-0.1048569306731224 -0.21030937135219574 0.0
-0.10438058525323868 -0.21166175603866577 0.0
-0.10257930308580399 -0.21031759679317474 0.0
-0.10166064649820328 -0.21076318621635437 0.0
-0.09901800751686096 -0.20759440958499908 0.0
-0.09768470376729965 -0.20712003111839294 0.0
-0.09889315068721771 -0.21207581460475922 0.0
-0.09796686470508575 -0.2125052958726883 0.0
-0.09786809980869293 -0.21475064754486084 0.0
-0.09282293915748596 -0.20605802536010742 0.0
-0.08826231211423874 -0.19823916256427765 0.0
-0.09061849117279053 -0.20594488084316254 0.0
-0.09131404012441635 -0.21000654995441437 0.0
-0.08842311799526215 -0.20580902695655823 0.0
-0.08752427250146866 -0.20619288086891174 0.0
-0.08778390288352966 -0.2093394249677658 0.0
-0.08572160452604294 -0.20694881677627563 0.0
-0.08519645780324936 -0.2082464098930359 0.0
-0.08653466403484344 -0.21417926251888275 0.0
-0.08485820144414902 -0.21269719302654266 0.0
-0.08466234058141708 -0.21492624282836914 0.0
-0.08517351001501083 -0.21902164816856384 0.0
-0.08565052598714828 -0.22312550246715546 0.0
-0.0832589790225029 -0.2197565734386444 0.0
-0.08264953643083572 -0.22105443477630615 0.0
-0.08168422430753708 -0.22141295671463013 0.0
-0.08242747187614441 -0.22646570205688477 0.0
-0.08211439102888107 -0.22870555520057678 0.0
-0.0797804668545723 -0.22529110312461853 0.0
-0.07813731580972672 -0.22374889254570007 0.0
-0.07650914788246155 -0.22219666838645935 0.0
-0.0761817991733551 -0.22442224621772766 0.0
-0.07615377008914948 -0.22759747505187988 0.0
-0.0764126405119896 -0.23172637820243835 0.0
-0.07694592326879501 -0.23681285977363586 0.0
-0.07530217617750168 -0.23524154722690582 0.0
-0.07307220250368118 -0.23175302147865295 0.0
-0.07146721333265305 -0.23015961050987244 0.0
-0.07133940607309341 -0.2333381623029709 0.0
-0.07089699804782867 -0.23556233942508698 0.0
-0.06986849755048752 -0.23586945235729218 0.0
-0.06827900558710098 -0.2342519760131836 0.0
-0.06725624948740005 -0.2345476597547531 0.0
-0.06623221188783646 -0.23483888804912567 0.0
-0.06467242538928986 -0.2331983745098114 0.0
-0.06312823295593262 -0.23154877126216888 0.0
-0.061599671840667725 -0.2298901528120041 0.0
-0.06110522150993347 -0.23209083080291748 0.0
-0.06134387478232384 -0.23719598352909088 0.0
-0.061539117246866226 -0.24230752885341644 0.0
-0.059997428208589554 -0.24063314497470856 0.0
-0.057996153831481934 -0.2370072901248932 0.0
-0.0564945712685585 -0.23531334102153778 0.0
-0.05546729639172554 -0.23555760085582733 0.0
-0.05376409739255905 -0.23287427425384521 0.0
-0.051864687353372574 -0.22920528054237366 0.0
-0.05043121799826622 -0.2274768054485321 0.0
-0.04943819344043732 -0.22769469022750854 0.0
-0.04927588626742363 -0.23182082176208496 0.0
-0.045412883162498474 -0.21832698583602905 0.0
-0.042864855378866196 -0.2106836587190628 0.0
-0.04292064532637596 -0.2157726287841797 0.0
-0.038353320211172104 -0.19730693101882935 0.0
-0.3881639540195465 -2.044477939605713 0.0
-0.3863469660282135 -2.0844991207122803 0.0
-0.3854335844516754 -2.1314308643341064 0.0
-0.3823813498020172 -2.1685454845428467 0.0
-0.37935110926628113 -2.20764422416687 0.0
-0.3758218586444855 -2.2457711696624756 0.0
-0.3719669580459595 -2.2839083671569824 0.0
-0.3668476343154907 -2.3161277770996094 0.0
-0.35704249143600464 -2.319683313369751 0.0
-0.7739500403404236 -5.178483963012695 0.0
-0.7509170174598694 -5.178843021392822 0.0
-0.7276172041893005 -5.17711877822876 0.0
-0.7046164870262146 -5.177271842956543 0.0
-0.6813672184944153 -5.175339698791504 0.0
-0.6580220460891724 -5.172311305999756 0.0
-0.6343506574630737 -5.166200637817383 0.0
-0.6106275916099548 -5.1589884757995605 0.0
-0.5875455737113953 -5.156635761260986 0.0
-0.5644958019256592 -5.15418004989624 0.0
-0.5414785742759705 -5.151621341705322 0.0
-0.5184944868087769 -5.148960113525391 0.0
-0.4954480528831482 -5.145201206207275 0.0
-0.47271886467933655 -5.144326686859131 0.0
-0.44983240962028503 -5.141359329223633 0.0
-0.42722928524017334 -5.141280174255371 0.0
-0.4044000208377838 -5.138110637664795 0.0
-0.3816065788269043 -5.1348395347595215 0.0
-0.3589191436767578 -5.132465839385986 0.0
-0.3360634446144104 -5.126997470855713 0.0
-0.313445508480072 -5.124423027038574 0.0
-0.29085639119148254 -5.121747970581055 0.0
-0.2680872678756714 -5.1149797439575195 0.0
-0.24557466804981232 -5.112104892730713 0.0
-0.22317951917648315 -5.1111297607421875 0.0
-0.200679749250412 -5.107059001922607 0.0
-0.17835938930511475 -5.106886386871338 0.0
-0.15601381659507751 -5.105617046356201 0.0
-0.13355179131031036 -5.099251747131348 0.0
-0.11123557388782501 -5.0967864990234375 0.0
-0.08896087110042572 -5.095223426818848 0.0
-0.06662336736917496 -5.087563991546631 0.0
-0.04438931494951248 -5.08380651473999 0.0
-0.02220243029296398 -5.082951545715332 0.0
-2.382571983616799e-05 -5.077000141143799 0.0
0.022102419286966324 -5.07095193862915 0.0
0.044149719178676605 -5.061807632446289 0.0
0.06616998463869095 -5.056567192077637 0.0
0.018005941063165665 -1.0318429470062256 0.0
0.022442562505602837 -1.0287553071975708 0.0
0.026826413348317146 -1.0246490240097046 0.0
0.03138859197497368 -1.0275206565856934 0.0
0.03590655326843262 -1.02837336063385 0.0
0.04058957099914551 -1.0332030057907104 0.0
0.04588240385055542 -1.0509990453720093 0.0
0.2414969503879547 -5.028204441070557 0.0
0.07593224942684174 -1.4490119218826294 0.0
0.08219728618860245 -1.447668433189392 0.0
0.0885130912065506 -1.447295904159546 0.0
0.09463101625442505 -1.4439023733139038 0.0
0.10086052864789963 -1.4424781799316406 0.0
0.3731847107410431 -5.022153854370117 0.0
0.39509424567222595 -5.020477771759033 0.0
0.4168306589126587 -5.0167131423950195 0.0
0.4386288821697235 -5.013850688934326 0.0
0.46077603101730347 -5.014876365661621 0.0
0.4824613034725189 -5.010827541351318 0.0
0.504220187664032 -5.007679462432861 0.0
0.5260653495788574 -5.00543212890625 0.0
0.5476827025413513 -5.001100540161133 0.0
0.5696119070053101 -4.999656677246094 0.0
0.5913038849830627 -4.99613094329834 0.0
0.6130977869033813 -4.993503093719482 0.0
0.3081648051738739 -2.422477960586548 0.0
0.32264745235443115 -2.4508535861968994 0.0
0.33145031332969666 -2.4355504512786865 0.0
0.329131543636322 -2.3419857025146484 0.0
0.29845333099365234 -2.058476686477661 0.0
0.27905386686325073 -1.867263674736023 0.0
0.2805054187774658 -1.822540283203125 0.0
0.28876784443855286 -1.8232743740081787 0.0
0.2954346835613251 -1.814100980758667 0.0
0.30169686675071716 -1.8029319047927856 0.0
0.851969301700592 -4.958337306976318 0.0
0.8739432096481323 -4.95654296875 0.0
0.8953836560249329 -4.951697826385498 0.0
0.9171631336212158 -4.948727607727051 0.0
0.9389336109161377 -4.9456610679626465 0.0
0.9603132009506226 -4.940535545349121 0.0
0.981665849685669 -4.935317516326904 0.0
1.0035895109176636 -4.932947158813477 0.0
1.0259182453155518 -4.932437419891357 0.0
1.0476380586624146 -4.928892135620117 0.0
1.0693464279174805 -4.925251483917236 0.0
1.0912593603134155 -4.922491073608398 0.0
1.1136099100112915 -4.921584129333496 0.0
1.1355235576629639 -4.9186272621154785 0.0
1.1572033166885376 -4.9145989418029785 0.0
1.179336428642273 -4.91241979598999 0.0
1.201472520828247 -4.910141944885254 0.0
1.2228854894638062 -4.904852390289307 0.0
1.2455058097839355 -4.904316425323486 0.0
1.267643928527832 -4.901739597320557 0.0
1.2897834777832031 -4.8990631103515625 0.0
1.3116648197174072 -4.895320415496826 0.0
1.3335379362106323 -4.891479969024658 0.0
1.3554025888442993 -4.887542247772217 0.0
1.3775298595428467 -4.884469032287598 0.0
1.398553490638733 -4.877450942993164 0.0
1.1055805683135986 -3.7931642532348633 0.0
1.1235407590866089 -3.793097972869873 0.0
1.1236536502838135 -3.7335779666900635 0.0
1.0782444477081299 -3.5268590450286865 0.0
1.062783122062683 -3.4227983951568604 0.0
1.0762041807174683 -3.413360118865967 0.0
1.0941359996795654 -3.4181559085845947 0.0
1.107494831085205 -3.4085938930511475 0.0
1.1173465251922607 -3.3885338306427 0.0
1.1305345296859741 -3.378884792327881 0.0
1.6441311836242676 -4.8435587882995605 0.0
1.6665517091751099 -4.840120792388916 0.0
1.6899625062942505 -4.839411735534668 0.0
1.7123972177505493 -4.8357625007629395 0.0
1.7351703643798828 -4.832950592041016 0.0
1.7579513788223267 -4.8300323486328125 0.0
1.7803938388824463 -4.82606840133667 0.0
1.380842924118042 -3.693307876586914 0.0
1.4291847944259644 -3.772345542907715 0.0
1.446705937385559 -3.768874168395996 0.0
1.447914719581604 -3.723381280899048 0.0
1.8947786092758179 -4.810271739959717 0.0
1.9183429479599 -4.808460235595703 0.0
1.9408038854599 -4.803752899169922 0.0
1.9625027179718018 -4.79709005355835 0.0
1.41896653175354 -3.425755262374878 0.0
1.4408612251281738 -3.436131000518799 0.0
1.4488073587417603 -3.4132423400878906 0.0
1.4640811681747437 -3.407806873321533 0.0
1.4821264743804932 -3.4087228775024414 0.0
1.4953745603561401 -3.39856219291687 0.0
2.1251654624938965 -4.773290157318115 0.0
2.1484367847442627 -4.769443035125732 0.0
2.1717147827148438 -4.7654829025268555 0.0
2.194580316543579 -4.760502338409424 0.0
2.2182891368865967 -4.757225513458252 0.0
2.242011070251465 -4.7538323402404785 0.0
2.2670371532440186 -4.753030776977539 0.0
2.2907955646514893 -4.749398708343506 0.0
2.3136885166168213 -4.743852138519287 0.0
2.3387880325317383 -4.742680072784424 0.0
2.3630292415618896 -4.739590167999268 0.0
2.3850369453430176 -4.731913089752197 0.0
2.4092929363250732 -4.7285895347595215 0.0
0.0 -0.0 0.0
0.0 -0.0 0.0
2.1329500675201416 -4.054144382476807 0.0
2.1520276069641113 -4.047447681427002 0.0
2.1786601543426514 -4.0547566413879395 0.0
2.2049202919006348 -4.061030864715576 0.0
2.230795383453369 -4.066275596618652 0.0
2.2572429180145264 -4.072246551513672 0.0
2.285250663757324 -4.080681324005127 0.0
2.312390089035034 -4.087207794189453 0.0
2.339629650115967 -4.093575477600098 0.0
2.365968704223633 -4.098050594329834 0.0
2.3949100971221924 -4.106692790985107 0.0
2.42397141456604 -4.115159511566162 0.0
2.45212984085083 -4.121732234954834 0.0
2.4809064865112305 -4.128994464874268 0.0
2.5108304023742676 -4.137793064117432 0.0
2.5393106937408447 -4.143851280212402 0.0
2.5678915977478027 -4.1497392654418945 0.0
2.5976316928863525 -4.1571526527404785 0.0
2.626418113708496 -4.162693500518799 0.0
2.6590628623962402 -4.1739654541015625 0.0
2.688610076904297 -4.179985523223877 0.0
2.7193493843078613 -4.187503814697266 0.0
2.750753879547119 -4.195669651031494 0.0
2.7839365005493164 -4.206142425537109 0.0
2.8161518573760986 -4.214742183685303 0.0
2.847935676574707 -4.222311496734619 0.0
2.8787131309509277 -4.228030204772949 0.0
2.912426710128784 -4.237680435180664 0.0
2.9474189281463623 -4.24876070022583 0.0
2.9819893836975098 -4.258796215057373 0.0
3.013240337371826 -4.2637104988098145 0.0
3.037041664123535 -4.257849216461182 0.0
3.0579278469085693 -4.247803688049316 0.0
3.078784465789795 -4.237656593322754 0.0
3.1007931232452393 -4.2290215492248535 0.0
3.12218976020813 -4.219470500946045 0.0
3.1429641246795654 -4.209012508392334 0.0
3.164910316467285 -4.2000508308410645 0.0
3.1850218772888184 -4.188589096069336 0.0
3.2081379890441895 -4.180999279022217 0.0
3.230635643005371 -4.172496318817139 0.0
3.2512731552124023 -4.16151237487793 0.0
3.2731146812438965 -4.151998519897461 0.0
3.2949349880218506 -4.142373085021973 0.0
3.3179850578308105 -4.134195804595947 0.0
3.339138984680176 -4.123565196990967 0.0
3.360262870788574 -4.112828254699707 0.0
3.38008451461792 -4.100442409515381 0.0
3.401780366897583 -4.090268135070801 0.0
3.4240944385528564 -4.080748558044434 0.0
3.4450979232788086 -4.069585800170898 0.0
3.4693164825439453 -4.062119007110596 0.0
3.4896185398101807 -4.049973011016846 0.0
3.6240336894989014 -4.1690473556518555 0.0
3.105487823486328 -3.5411927700042725 0.0
3.1467514038085938 -3.5568184852600098 0.0
0.0 -0.0 0.0
3.5972111225128174 -3.995178699493408 0.0
3.628056049346924 -3.9942495822906494 0.0
3.652205228805542 -3.9857537746429443 0.0
3.6736342906951904 -3.974186420440674 0.0
3.697077989578247 -3.9647018909454346 0.0
2.990795373916626 -3.17936635017395 0.0
3.003262758255005 -3.1648356914520264 0.0
3.0184261798858643 -3.1531460285186768 0.0
3.046048641204834 -3.1543326377868652 0.0
0.0 -0.0 0.0
3.4989068508148193 -3.5605781078338623 0.0
3.4904730319976807 -3.5211310386657715 0.0
3.845918655395508 -3.8459889888763428 0.0
3.8825485706329346 -3.848884344100952 0.0
3.89288592338562 -3.82559871673584 0.0
3.9016616344451904 -3.80090069770813 0.0
3.9153318405151367 -3.781061887741089 0.0
3.926013708114624 -3.7584102153778076 0.0
3.9343960285186768 -3.7336719036102295 0.0
3.9448227882385254 -3.7109880447387695 0.0
3.954395055770874 -3.6876020431518555 0.0
3.9469497203826904 -3.6485912799835205 0.0
0.0 -0.0 0.0
3.4516077041625977 -3.1352789402008057 0.0
3.4645118713378906 -3.1195197105407715 0.0
0.0 -0.0 0.0
1.9098211526870728 -1.689699411392212 0.0
1.905898094177246 -1.6714597940444946 0.0
1.9063806533813477 -1.6572233438491821 0.0
1.9143511056900024 -1.6495423316955566 0.0
1.9245718717575073 -1.6437715291976929 0.0
1.9370683431625366 -1.6398813724517822 0.0
1.948035478591919 -1.6346278190612793 0.0
4.087899684906006 -3.3999369144439697 0.0
4.0980658531188965 -3.378251314163208 0.0
4.108120441436768 -3.356541872024536 0.0
4.116509914398193 -3.333550453186035 0.0
4.126336574554443 -3.3118016719818115 0.0
4.138399600982666 -3.291898012161255 0.0
4.145656108856201 -3.268237829208374 0.0
4.153573036193848 -3.245192766189575 0.0
1.8509901762008667 -1.4332189559936523 0.0
1.850879430770874 -1.4202587604522705 0.0
1.8483027219772339 -1.4055110216140747 0.0
1.844834327697754 -1.3902111053466797 0.0
1.8516838550567627 -1.382746696472168 0.0
1.8641302585601807 -1.3794126510620117 0.0
1.880614995956421 -1.378952980041504 0.0
1.9464808702468872 -1.4142309427261353 0.0
2.1579596996307373 -1.553541660308838 0.0
2.2225193977355957 -1.585341453552246 0.0
2.2408485412597656 -1.5837091207504272 0.0
2.2444608211517334 -1.571622371673584 0.0
5.76216983795166 -3.997446060180664 0.0
5.8026323318481445 -3.9881255626678467 0.0
5.843122482299805 -3.978527784347534 0.0
5.8852972984313965 -3.969770908355713 0.0
5.927506446838379 -3.960721015930176 0.0
5.971415996551514 -3.952482223510742 0.0
6.014529705047607 -3.943387031555176 0.0
6.055160999298096 -3.932356595993042 0.0
6.1016974449157715 -3.924833059310913 0.0
2.1430435180664062 -1.3653006553649902 0.0
2.1498260498046875 -1.3564704656600952 0.0
2.1506359577178955 -1.3438977003097534 0.0
2.1522276401519775 -1.3318699598312378 0.0
2.1588711738586426 -1.3229889869689941 0.0
2.1714625358581543 -1.3177069425582886 0.0
2.186619997024536 -1.31388521194458 0.0
2.1940510272979736 -1.3053544759750366 0.0
6.712049961090088 -3.9537949562072754 0.0
6.898548126220703 -4.023212432861328 0.0
6.993113040924072 -4.037574768066406 0.0
7.014135837554932 -4.009007930755615 0.0
37.857635498046875 -21.41935157775879 0.0
37.89838409423828 -21.224645614624023 0.0
6.734531879425049 -3.7331063747406006 0.0
0.0 -0.0 0.0
5.533000469207764 -3.00425124168396 0.0
5.57072114944458 -2.993333578109741 0.0
5.6084513664245605 -2.9821436405181885 0.0
5.6479597091674805 -2.9716126918792725 0.0
5.688368797302246 -2.961254835128784 0.0
5.728795051574707 -2.950601100921631 0.0
5.769236087799072 -2.939650535583496 0.0
5.806118011474609 -2.926602363586426 0.0
5.844785213470459 -2.9141805171966553 0.0
5.888835906982422 -2.904130697250366 0.0
5.932010173797607 -2.89331316947937 0.0
5.974300861358643 -2.881739377975464 0.0
6.01931095123291 -2.871142864227295 0.0
6.0643415451049805 -2.86020827293396 0.0
6.1066718101501465 -2.8476672172546387 0.0
6.150823593139648 -2.8356480598449707 0.0
6.198626518249512 -2.8249566555023193 0.0
6.24462890625 -2.813080072402954 0.0
6.289731025695801 -2.8004488945007324 0.0
6.336671829223633 -2.788282871246338 0.0
6.385459899902344 -2.7765579223632812 0.0
6.433346748352051 -2.7640650272369385 0.0
6.468358993530273 -2.745736598968506 0.0
6.487655162811279 -2.720580577850342 0.0
6.507779121398926 -2.6956913471221924 0.0
6.525958061218262 -2.6699206829071045 0.0
6.5431084632873535 -2.6436681747436523 0.0
6.560154438018799 -2.617316722869873 0.0
6.576164245605469 -2.590500593185425 0.0
6.594860553741455 -2.5646815299987793 0.0
6.613456726074219 -2.5387487411499023 0.0
6.630082130432129 -2.511993646621704 0.0
6.650346755981445 -2.4865429401397705 0.0
6.668638229370117 -2.460270643234253 0.0
6.686827182769775 -2.4338860511779785 0.0
6.708677291870117 -2.4087412357330322 0.0
6.727607727050781 -2.382450819015503 0.0
6.7454915046691895 -2.355710983276367 0.0
6.763269901275635 -2.3288605213165283 0.0
6.783783435821533 -2.3028640747070312 0.0
6.806095600128174 -2.277367353439331 0.0
6.8216657638549805 -2.2495276927948 0.0
6.838073253631592 -2.2219042778015137 0.0
6.859131813049316 -2.195704936981201 0.0
6.877230644226074 -2.168462038040161 0.0
6.893311977386475 -2.140509605407715 0.0
6.916930198669434 -2.114797353744507 0.0
6.937582969665527 -2.088054895401001 0.0
6.95046329498291 -2.0589003562927246 0.0
6.961300373077393 -2.029113292694092 0.0
6.961436748504639 -1.9962389469146729 0.0
9.336750984191895 -2.6333417892456055 0.0
9.368388175964355 -2.59818959236145 0.0
9.360340118408203 -2.5520269870758057 0.0
9.350135803222656 -2.5054662227630615 0.0
3.726017951965332 -0.9810203313827515 0.0
3.7254223823547363 -0.9635012745857239 0.0
3.7247445583343506 -0.9460060596466064 0.0
3.734658718109131 -0.9311964511871338 0.0
3.762969732284546 -0.920834481716156 0.0
3.7990400791168213 -0.9121107459068298 0.0
3.827317953109741 -0.9012559056282043 0.0
3.845829725265503 -0.8879219889640808 0.0
3.869174003601074 -0.8755471110343933 0.0
3.891507148742676 -0.8627688884735107 0.0
3.9118475914001465 -0.8493880033493042 0.0
3.9341013431549072 -0.8362618088722229 0.0
3.9553351402282715 -0.8227537870407104 0.0
3.975546360015869 -0.8088770508766174 0.0
3.9986534118652344 -0.7954248189926147 0.0
4.023681640625 -0.7821678519248962 0.0
4.04670524597168 -0.7683345079421997 0.0
4.0696845054626465 -0.7543151378631592 0.0
4.095570087432861 -0.7406435608863831 0.0
4.1184587478637695 -0.7262393832206726 0.0
4.141299247741699 -0.7116495370864868 0.0
4.167049884796143 -0.6973693370819092 0.0
4.197688579559326 -0.6836816072463989 0.0
4.211496829986572 -0.6670802235603333 0.0
4.212389945983887 -0.648393452167511 0.0
4.223091125488281 -0.6311898231506348 0.0
4.230753421783447 -0.6134746670722961 0.0
9.158976554870605 -1.2873066663742065 0.0
9.143698692321777 -1.2444988489151 0.0
9.136152267456055 -1.2028931379318237 0.0
9.126434326171875 -1.1611247062683105 0.0
9.048039436340332 -1.1110543012619019 0.0
9.001161575317383 -1.0654518604278564 0.0
9.064345359802246 -1.032846450805664 0.0
9.101570129394531 -0.9968790411949158 0.0
9.095888137817383 -0.9561113119125366 0.0
9.096988677978516 -0.9161134362220764 0.0
9.078999519348145 -0.874302864074707 0.0
9.033934593200684 -0.8301960229873657 0.0
