# .PCD v0.7 - Point Cloud Data file format
VERSION 0.7
FIELDS x y z
SIZE 4 4 4
TYPE F F F
COUNT 1 1 1
WIDTH 868
HEIGHT 1
VIEWPOINT 0 0 0 1 0 0 0
POINTS 868
DATA ascii
2.8223519325256348 -4.2240214347839355 0.22180458903312683
2.856398105621338 -4.23485803604126 0.22302594780921936
2.8889052867889404 -4.24299955368042 0.22411641478538513
2.9226696491241455 -4.252584457397461 0.22529415786266327
2.969099998474121 -4.2800140380859375 0.2274314910173416
3.016397714614868 -4.307937145233154 0.22961246967315674
3.021904230117798 -4.275969505310059 0.22860921919345856
3.0370516777038574 -4.257863521575928 0.22834749519824982
3.0596868991851807 -4.250247001647949 0.22865283489227295
3.081139087677002 -4.2408976554870605 0.2288709282875061
3.102567672729492 -4.231441974639893 0.22908903658390045
3.123378038406372 -4.221076488494873 0.22926349937915802
3.1447548866271973 -4.2114105224609375 0.22948160767555237
3.166707754135132 -4.202436447143555 0.22974331676959991
3.1856188774108887 -4.1893744468688965 0.2297869324684143
3.208125114440918 -4.18098258972168 0.23009227216243744
3.233065366744995 -4.175634384155273 0.23057208955287933
3.2549445629119873 -4.1662116050720215 0.23083381354808807
3.2743287086486816 -4.153538703918457 0.23092104494571686
3.2949085235595703 -4.142339706420898 0.23109552264213562
3.317328453063965 -4.133378028869629 0.23140086233615875
3.339104413986206 -4.123522758483887 0.2316625714302063
3.3608572483062744 -4.113555908203125 0.23192429542541504
3.3832221031188965 -4.104248523712158 0.23222963511943817
3.404930830001831 -4.094056129455566 0.23249134421348572
3.4278993606567383 -4.085283279418945 0.23284029960632324
3.4502103328704834 -4.075624942779541 0.23314563930034637
3.4725024700164795 -4.065849781036377 0.2334509640932083
3.482384204864502 -4.041576862335205 0.23292753100395203
0.0 -0.0 0.0
3.1170239448547363 -3.554347515106201 0.20640695095062256
3.043134927749634 -3.439699172973633 0.20051832497119904
0.0 -0.0 0.0
3.599135398864746 -3.9973158836364746 0.2348467856645584
3.687744617462158 -4.059962749481201 0.2394704520702362
0.0 -0.0 0.0
0.0 -0.0 0.0
0.0 -0.0 0.0
0.0 -0.0 0.0
3.005218029022217 -3.166896104812622 0.19061674177646637
3.01969838142395 -3.154474973678589 0.19066035747528076
0.0 -0.0 0.0
0.0 -0.0 0.0
0.0 -0.0 0.0
0.0 -0.0 0.0
0.0 -0.0 0.0
0.0 -0.0 0.0
0.0 -0.0 0.0
0.0 -0.0 0.0
0.0 -0.0 0.0
0.0 -0.0 0.0
0.0 -0.0 0.0
0.0 -0.0 0.0
0.0 -0.0 0.0
0.0 -0.0 0.0
0.0 -0.0 0.0
3.4461042881011963 -3.130280017852783 0.20326635241508484
3.4678962230682373 -3.1225671768188477 0.20374615490436554
0.0 -0.0 0.0
1.9109963178634644 -1.6907390356063843 0.1114039197564125
1.910093069076538 -1.6751388311386108 0.11092410981655121
1.9090900421142578 -1.6595786809921265 0.11044429242610931
1.911015272140503 -1.6466679573059082 0.11013895273208618
1.921980381011963 -1.641558289527893 0.11035706102848053
1.9344621896743774 -1.6376750469207764 0.11066239327192307
1.9477118253707886 -1.6343562602996826 0.11101134121417999
1.954824447631836 -1.6258422136306763 0.11101134121417999
4.0933942794799805 -3.3744006156921387 0.2316189557313919
4.1034369468688965 -3.352715015411377 0.23135724663734436
4.114144802093506 -3.331634998321533 0.23113913834095
4.12396764755249 -3.3099000453948975 0.23087742924690247
4.133679389953613 -3.2881429195404053 0.23061570525169373
4.144848823547363 -3.267601251602173 0.23044124245643616
4.155917644500732 -3.2470245361328125 0.2302667498588562
1.8460688591003418 -1.429408311843872 0.10193851590156555
1.8554584980010986 -1.4237725734710693 0.10211298614740372
1.853700876235962 -1.4096158742904663 0.10167679190635681
1.8518550395965576 -1.395501732826233 0.1012405976653099
1.8587268590927124 -1.3880059719085693 0.1012842208147049
1.8687809705734253 -1.3828539848327637 0.10150232166051865
1.888493299484253 -1.3847296237945557 0.10224384814500809
1.9704921245574951 -1.4316765069961548 0.106344074010849
2.1688785552978516 -1.5614022016525269 0.11668186634778976
2.2114574909210205 -1.5774509906768799 0.11860111355781555
2.226477861404419 -1.5735527276992798 0.11903730779886246
2.2398695945739746 -1.568407416343689 0.11938627064228058
5.85683012008667 -4.063116073608398 0.3112243413925171
5.895086765289307 -4.051669120788574 0.31231483817100525
5.9383087158203125 -4.043339252471924 0.31366702914237976
5.985711097717285 -4.037502288818359 0.3152373135089874
6.029021739959717 -4.028553009033203 0.3165895342826843
6.0723676681518555 -4.0193023681640625 0.31794172525405884
6.115746974945068 -4.009749412536621 0.31929391622543335
6.159158229827881 -3.999894618988037 0.32064613699913025
2.1551976203918457 -1.3863012790679932 0.1118837296962738
2.144374132156372 -1.3661482334136963 0.11101134121417999
2.1410205364227295 -1.3509145975112915 0.1105315312743187
2.1409640312194824 -1.3378539085388184 0.11022619903087616
2.1459314823150635 -1.32797372341156 0.11018257588148117
2.159371852874756 -1.3232958316802979 0.11057514697313309
2.1753742694854736 -1.3200807571411133 0.11109858751296997
2.187107801437378 -1.3141783475875854 0.1114039197564125
6.371545314788818 -3.790762186050415 0.3236995041370392
9.109025955200195 -5.365756034851074 0.46158039569854736
6.990365028381348 -4.0767598152160645 0.3533170521259308
7.00376033782959 -4.043722152709961 0.35309895873069763
7.022205352783203 -4.013620376586914 0.3531425893306732
10.729033470153809 -6.070346355438232 0.5382196307182312
10.814690589904785 -6.05666971206665 0.541185736656189
6.769189834594727 -3.7523181438446045 0.3379194140434265
5.526848316192627 -3.032210111618042 0.2752383351325989
5.553195476531982 -3.01521635055542 0.2758926451206207
5.587420463562012 -3.0023064613342285 0.2769395112991333
5.625166416168213 -2.9910314083099365 0.27816084027290344
5.6638031005859375 -2.9799487590789795 0.27942579984664917
5.703336715698242 -2.9690470695495605 0.2807343900203705
5.741106033325195 -2.956941604614258 0.2819557189941406
5.7788777351379395 -2.944563150405884 0.28317707777023315
5.820218563079834 -2.9337098598480225 0.28457289934158325
5.861574172973633 -2.922551393508911 0.28596872091293335
5.902943134307861 -2.91108775138855 0.28736454248428345
5.945220470428467 -2.89975643157959 0.28880396485328674
5.985712051391602 -2.8872435092926025 0.29015618562698364
6.03251838684082 -2.8774428367614746 0.2918137311935425
6.077545166015625 -2.8664357662200928 0.29338401556015015
6.118968486785889 -2.8534014225006104 0.29477983713150024
6.160393238067627 -2.840059995651245 0.29617565870285034
6.204544544219971 -2.8276538848876953 0.2977023422718048
6.250526428222656 -2.815737009048462 0.29931625723838806
6.298347473144531 -2.8042855262756348 0.3010174036026001
6.347101211547852 -2.7928719520568848 0.3027621805667877
6.394041538238525 -2.7802894115448 0.30441972613334656
6.436403274536133 -2.76537823677063 0.30585917830467224
6.465880393981934 -2.7446846961975098 0.3066879212856293
6.483323097229004 -2.718763828277588 0.306949645280838
6.501585006713867 -2.6931254863739014 0.30725497007369995
6.519746780395508 -2.66737961769104 0.3075602948665619
6.5396599769592285 -2.642274856567383 0.307952880859375
6.556694507598877 -2.615936517715454 0.30821460485458374
6.57176399230957 -2.5887670516967773 0.3083890676498413
6.5932393074035645 -2.5640509128570557 0.3088688850402832
6.612758636474609 -2.538480520248413 0.3092614710330963
6.630311489105225 -2.512080430984497 0.30956679582595825
6.647759914398193 -2.4855759143829346 0.3098721504211426
6.666040420532227 -2.4593122005462646 0.3102211058139801
6.68515682220459 -2.4332780838012695 0.3106136620044708
6.7041730880737305 -2.4071240425109863 0.31100624799728394
6.723088264465332 -2.380850315093994 0.31139883399009705
6.739071846008301 -2.353468894958496 0.3116605281829834
6.758722305297852 -2.3272945880889893 0.3120967149734497
6.777327060699463 -2.3006722927093506 0.3124893009662628
6.793932914733887 -2.2732977867126465 0.31279465556144714
6.812326431274414 -2.246448040008545 0.31318721175193787
6.8306145668029785 -2.2194807529449463 0.3135797679424286
6.848797798156738 -2.192396879196167 0.3139723539352417
6.868779182434082 -2.165797233581543 0.3144521713256836
6.887705326080322 -2.1387686729431152 0.3148883581161499
6.908436298370361 -2.1122002601623535 0.3154118061065674
6.92715311050415 -2.08491587638855 0.3158479928970337
6.94288969039917 -2.056656837463379 0.31615331768989563
6.955634117126465 -2.0274617671966553 0.3163278102874756
6.973057270050049 -1.9995710849761963 0.3167203664779663
8.876903533935547 -2.5036461353302 0.4026941955089569
8.97246265411377 -2.4883854389190674 0.4065327048301697
9.130705833435059 -2.4894189834594727 0.4132064878940582
9.260176658630371 -2.481360673904419 0.4185716509819031
3.725369930267334 -0.9808497428894043 0.16819636523723602
3.722843885421753 -0.9628344178199768 0.1678910255432129
3.7211997509002686 -0.9451057314872742 0.16762931644916534
3.7311041355133057 -0.9303101897239685 0.1678910255432129
3.7428910732269287 -0.9159210920333862 0.16823998093605042
3.7643380165100098 -0.903779149055481 0.16902513802051544
9.199380874633789 -2.1662681102752686 0.41263940930366516
9.133790969848633 -2.108802318572998 0.4092807173728943
9.122443199157715 -2.064298152923584 0.4083647131919861
9.079668998718262 -2.0130133628845215 0.4060528874397278
8.969257354736328 -1.9475144147872925 0.40073132514953613
8.938580513000488 -1.900051236152649 0.3989865481853485
8.768770217895508 -1.8240019083023071 0.39104780554771423
8.705179214477539 -1.7711830139160156 0.3878636062145233
8.646195411682129 -1.719928503036499 0.38489747047424316
8.60066032409668 -1.671891689300537 0.38254204392433167
8.62063217163086 -1.6367709636688232 0.38310906291007996
8.675826072692871 -1.608062505722046 0.3852464556694031
8.737813949584961 -1.5801477432250977 0.38768914341926575
8.734786033630371 -1.5402718782424927 0.38725292682647705
8.716809272766113 -1.4979146718978882 0.3861624598503113
4.212350845336914 -0.7049505710601807 0.18647287786006927
4.213414669036865 -0.6862428784370422 0.1863856464624405
4.204527854919434 -0.665976345539093 0.1858622133731842
4.205419063568115 -0.6473203897476196 0.18577498197555542
4.221048355102539 -0.6308844685554504 0.1863420307636261
8.621533393859863 -1.2501537799835205 0.38036105036735535
8.621959686279297 -1.2118282318115234 0.3801429569721222
8.618255615234375 -1.1729837656021118 0.37975040078163147
8.597538948059082 -1.1319776773452759 0.3786163032054901
8.572665214538574 -1.0906705856323242 0.3773077130317688
8.582300186157227 -1.053863763809204 0.37752583622932434
8.62352466583252 -1.0207515954971313 0.3791397213935852
8.658668518066406 -0.9866211414337158 0.3804919421672821
8.82476806640625 -0.966561496257782 0.38760191202163696
9.085243225097656 -0.9549922943115234 0.39885568618774414
9.109204292297363 -0.9173436164855957 0.39972808957099915
9.108147621154785 -0.8771098256111145 0.399509996175766
9.09398078918457 -0.8357142210006714 0.39872485399246216
9.029863357543945 -0.7901046872138977 0.3957586884498596
8.884879112243652 -0.7383689880371094 0.3892594277858734
8.711730003356934 -0.6857185959815979 0.3815388083457947
8.599067687988281 -0.6391105055809021 0.3764789402484894
3.3037750720977783 -0.2310567945241928 0.14459827542304993
3.2957797050476074 -0.21605104207992554 0.144205704331398
3.29070782661438 -0.20130246877670288 0.14394398033618927
3.2955446243286133 -0.18716877698898315 0.14411845803260803
3.3033134937286377 -0.1731535792350769 0.14442379772663116
3.312021255493164 -0.15912210941314697 0.1447727531194687
5.450607776641846 -0.23803512752056122 0.23820549249649048
5.6093220710754395 -0.22044892609119415 0.245097354054451
5.6012444496154785 -0.19565771520137787 0.24470476806163788
8.596792221069336 -0.262744665145874 0.3755193054676056
8.731682777404785 -0.2287374585866928 0.38136428594589233
8.79053020477295 -0.19190093874931335 0.3838942348957062
8.985069274902344 -0.15692786872386932 0.39235642552375793
9.012639999389648 -0.11807509511709213 0.3935341238975525
9.008073806762695 -0.07870539277791977 0.39331603050231934
9.002338409423828 -0.03937341645359993 0.393054336309433
8.992433547973633 -9.29525340325199e-05 0.3926181197166443
8.9823579788208 0.03910032659769058 0.3921819031238556
8.97411060333252 0.0782231017947197 0.39183297753334045
3.7820732593536377 0.049470946192741394 0.16514301300048828
3.778824806213379 0.06592055410146713 0.1650121510028839
3.7755045890808105 0.08234275132417679 0.16488128900527954
3.7781054973602295 0.09889408946037292 0.1650121510028839
3.7856266498565674 0.11562217772006989 0.16536110639572144
5.421529769897461 0.18926787376403809 0.23685328662395477
5.552424430847168 0.21809788048267365 0.24261103570461273
0.0 0.0 0.0
0.0 0.0 0.0
0.0 0.0 0.0
0.0 0.0 0.0
0.0 0.0 0.0
0.0 0.0 0.0
0.0 0.0 0.0
8.804320335388184 0.654182493686676 0.38546454906463623
8.88404655456543 0.699097216129303 0.38908493518829346
8.867968559265137 0.7367790341377258 0.38851791620254517
8.868650436401367 0.7758139371871948 0.38869237899780273
8.875129699707031 0.8154172301292419 0.38912856578826904
6.744359016418457 0.6493374705314636 0.2958267033100128
6.753389358520508 0.6799599528312683 0.2963501214981079
6.748371124267578 0.7092117667198181 0.2962628901004791
6.743226528167725 0.738432765007019 0.29617565870285034
6.737954616546631 0.7676222920417786 0.29608839750289917
6.731564998626709 0.7966625094413757 0.2959575653076172
6.728024959564209 0.8260267972946167 0.2959575653076172
6.723365783691406 0.8552493453025818 0.2959139347076416
6.715607643127441 0.8840557932853699 0.29573944211006165
6.709706783294678 0.9130802750587463 0.29565221071243286
6.70466947555542 0.9422091245651245 0.29560860991477966
6.699505805969238 0.9713113903999329 0.2955649793148041
6.690263271331787 0.9997959136962891 0.2953468859195709
6.685837268829346 1.0289781093597412 0.2953468859195709
6.684244155883789 1.0586094856262207 0.2954777479171753
6.679561138153076 1.087764859199524 0.2954777479171753
6.672780990600586 1.1165698766708374 0.2953904867172241
6.663906574249268 1.1449979543685913 0.29521602392196655
6.657863616943359 1.173890233039856 0.29517239332199097
6.651695251464844 1.202751636505127 0.29512879252433777
6.644419193267822 1.231399655342102 0.295041561126709
6.638983249664307 1.2603795528411865 0.295041561126709
6.633420467376709 1.2893354892730713 0.295041561126709
6.628711223602295 1.3184618949890137 0.2950851619243622
6.6219162940979 1.3471733331680298 0.295041561126709
6.615975379943848 1.3760539293289185 0.295041561126709
6.608931064605713 1.404700756072998 0.2949979305267334
6.603714942932129 1.4337362051010132 0.295041561126709
6.599347114562988 1.4629690647125244 0.29512879252433777
6.593874931335449 1.4919705390930176 0.29517239332199097
6.583408832550049 1.5198286771774292 0.2949979305267334
6.576714992523193 1.5485397577285767 0.2949979305267334
6.5640668869018555 1.5758219957351685 0.29473620653152466
6.541601657867432 1.6006487607955933 0.2940382957458496
6.51613712310791 1.624584674835205 0.2932095229625702
6.489620208740234 1.648082971572876 0.2923371493816376
6.46108865737915 1.6708805561065674 0.2913775146007538
6.43248176574707 1.6934608221054077 0.2904179096221924
6.402835845947266 1.7155646085739136 0.289414644241333
6.37504768371582 1.737967610359192 0.2884986400604248
6.351037502288818 1.7612287998199463 0.28775709867477417
6.325984954833984 1.7840425968170166 0.28697195649147034
6.300854206085205 1.8066712617874146 0.2861868143081665
6.271810054779053 1.8279966115951538 0.2852271795272827
6.24365758895874 1.8493865728378296 0.2843111753463745
6.215439319610596 1.8705658912658691 0.2833951711654663
6.190976619720459 1.892702579498291 0.28265365958213806
6.1693010330200195 1.9155502319335938 0.2820429503917694
6.1427812576293945 1.936742901802063 0.2812142074108124
6.116193771362305 1.9577406644821167 0.28038543462753296
6.092390537261963 1.9794694185256958 0.2796875238418579
6.06566858291626 2.000089168548584 0.2788587510585785
6.03793478012085 2.0201966762542725 0.2779863476753235
6.0120344161987305 2.0407426357269287 0.27720123529434204
5.9879584312438965 2.0617516040802 0.2765032947063446
5.962871551513672 2.0822601318359375 0.27576178312301636
5.939602851867676 2.1032559871673584 0.2751074731349945
5.913444519042969 2.1230759620666504 0.27432236075401306
5.848735332489014 2.1286985874176025 0.271748811006546
0.0 0.0 0.0
5.041069984436035 1.884720802307129 0.23497764766216278
8.564258575439453 3.2446084022521973 0.3998589515686035
7.452237129211426 2.8605594635009766 0.34851890802383423
7.357746124267578 2.8611855506896973 0.34468039870262146
7.126750946044922 2.8072187900543213 0.33442986011505127
7.0244245529174805 2.8023791313171387 0.3301987648010254
6.923205375671387 2.7970752716064453 0.3260113298892975
8.528170585632324 3.4888665676116943 0.4023016393184662
6.484103679656982 2.685727119445801 0.30642619729042053
6.456660747528076 2.7074263095855713 0.3056846857070923
6.435589790344238 2.7316694259643555 0.3052484691143036
6.4061689376831055 2.7522311210632324 0.30441972613334656
6.156805515289307 2.6769816875457764 0.2931222915649414
6.031674861907959 2.653928279876709 0.28771349787712097
5.9917449951171875 2.6676247119903564 0.28636130690574646
7.186078071594238 3.2370054721832275 0.3441133499145508
5.808236122131348 2.646895408630371 0.2786842882633209
5.779393196105957 2.664266347885132 0.2778555154800415
0.0 0.0 0.0
5.424302577972412 2.5582008361816406 0.26184719800949097
4.302156925201416 2.0519707202911377 0.2081081122159958
4.29406213760376 2.0711567401885986 0.20815172791481018
6.548698425292969 3.19393253326416 0.3181161880493164
5.071493625640869 2.5009210109710693 0.246885746717453
5.065897464752197 2.525700330734253 0.24714745581150055
5.0628581047058105 2.5518271923065186 0.24754002690315247
3.916717529296875 1.9956181049346924 0.1919253021478653
3.8946502208709717 2.0058276653289795 0.19127102196216583
0.0 0.0 0.0
4.661238670349121 2.4523372650146484 0.22996142506599426
3.5496184825897217 1.8873202800750732 0.17552441358566284
3.5343093872070312 1.8990075588226318 0.1751754730939865
0.0 0.0 0.0
5.494502544403076 3.0143163204193115 0.2736244201660156
5.403531074523926 2.9951558113098145 0.26974231004714966
5.371233940124512 3.007965087890625 0.26878267526626587
5.375448703765869 3.0412113666534424 0.2696550488471985
5.368199348449707 3.0681071281433105 0.2699604034423828
6.6430535316467285 3.835279703140259 0.33490967750549316
3.129304885864258 1.8249143362045288 0.1581639051437378
3.118730068206787 1.8370299339294434 0.15803304314613342
3.096947431564331 1.8424475193023682 0.15733513236045837
0.0 0.0 0.0
6.022283554077148 3.654327392578125 0.3075602948665619
6.105946063995361 3.741642951965332 0.3126637637615204
4.5799150466918945 2.8340725898742676 0.23515212535858154
3.836331844329834 2.397151470184326 0.19750860333442688
2.953869581222534 1.8637105226516724 0.15249337255954742
2.9414968490600586 1.8738974332809448 0.15227529406547546
0.0 0.0 0.0
7.855944633483887 5.1015944480896 0.40897539258003235
5.312918186187744 3.4832229614257812 0.2773756980895996
3.506509304046631 2.3208553791046143 0.1835940033197403
3.4747514724731445 2.321702241897583 0.18245990574359894
5.029160976409912 3.3921353816986084 0.2648569345474243
0.0 0.0 0.0
4.258355140686035 2.9266204833984375 0.2255994826555252
0.0 0.0 0.0
2.5467939376831055 1.783244252204895 0.13574354350566864
2.5430681705474854 1.7972224950790405 0.1359616369009018
0.0 0.0 0.0
3.222960948944092 2.32014799118042 0.1733870655298233
3.1416804790496826 2.282513380050659 0.16954855620861053
3.072070837020874 2.2524852752685547 0.16632072627544403
3.055788278579712 2.2611138820648193 0.1659717708826065
3.832782506942749 2.8620104789733887 0.20884962379932404
0.0 0.0 0.0
5.04904842376709 3.8392996788024902 0.2769395112991333
5.501470565795898 4.221332550048828 0.3027621805667877
5.422173023223877 4.1982011795043945 0.29940348863601685
0.0 0.0 0.0
2.8723337650299072 2.264314651489258 0.15969058871269226
0.0 0.0 0.0
0.0 0.0 0.0
5.819217205047607 4.712203502655029 0.3269273340702057
0.0 0.0 0.0
2.1484904289245605 1.7710392475128174 0.1215672418475151
2.1384382247924805 1.7784802913665771 0.12143637984991074
2.127596616744995 1.7852253913879395 0.12126190215349197
6.332672595977783 5.360882759094238 0.36225903034210205
6.305422782897949 5.385218620300293 0.3620409071445465
3.1568264961242676 2.720034599304199 0.18193645775318146
3.160762310028076 2.747546911239624 0.18285249173641205
2.4900014400482178 2.1836233139038086 0.14459827542304993
2.481198310852051 2.195129156112671 0.14464189112186432
2.4932119846343994 2.225226402282715 0.14590686559677124
2.50797963142395 2.258143901824951 0.14734630286693573
2.4862704277038574 2.2583179473876953 0.14664839208126068
3.6158876419067383 3.3132753372192383 0.2141275852918625
3.6146013736724854 3.3412272930145264 0.21491272747516632
0.0 0.0 0.0
2.9056484699249268 2.7332987785339355 0.17417222261428833
2.8770267963409424 2.7301342487335205 0.17316897213459015
5.469645977020264 5.235927104949951 0.3305913507938385
0.0 0.0 0.0
0.0 0.0 0.0
1.732993721961975 1.7029690742492676 0.10608235746622086
1.719161033630371 1.7041842937469482 0.10568977892398834
1.6961671113967896 1.6961278915405273 0.10473015159368515
3.179154872894287 3.2069458961486816 0.19715963304042816
5.061410427093506 5.15040922164917 0.315280944108963
4.968479156494141 5.100167751312256 0.31087538599967957
4.951035976409912 5.126828670501709 0.3111807107925415
2.1195688247680664 2.214078664779663 0.13382428884506226
2.089256525039673 2.2015655040740967 0.13251569867134094
2.063201904296875 2.1931965351104736 0.13146883249282837
4.785857677459717 5.132082939147949 0.30638256669044495
2.4705491065979004 2.6725618839263916 0.15890543162822723
2.462914228439331 2.6877355575561523 0.15916715562343597
0.0 0.0 0.0
4.5865960121154785 5.093809604644775 0.2992726266384125
4.5550127029418945 5.103338718414307 0.2986619472503662
4.512180328369141 5.09997034072876 0.2973097562789917
4.4707818031311035 5.097826957702637 0.29604479670524597
3.1697254180908203 3.64626407623291 0.21094337105751038
3.181175947189331 3.691847085952759 0.21277537941932678
3.202669858932495 3.749753475189209 0.21530531346797943
4.273975849151611 5.048501491546631 0.28880396485328674
0.0 0.0 0.0
0.0 0.0 0.0
4.248198509216309 5.153349876403809 0.29159560799598694
4.123902320861816 5.047279357910156 0.28457289934158325
1.7692487239837646 2.184786081314087 0.12274496257305145
1.7565721273422241 2.188589096069336 0.1225268617272377
1.7271043062210083 2.171213388442993 0.1211310476064682
1.6835960149765015 2.13557767868042 0.11873197555541992
1.6385867595672607 2.097242593765259 0.11620204895734787
1.248977541923523 1.613036036491394 0.08907078951597214
1.2613898515701294 1.6438333988189697 0.09046661108732224
1.2590430974960327 1.6556833982467651 0.09081556648015976
1.2548131942749023 1.6651506423950195 0.09103366732597351
0.0 0.0 0.0
3.6773219108581543 4.969486713409424 0.2699167728424072
3.64851450920105 4.975816249847412 0.26939332485198975
3.61326265335083 4.973099231719971 0.26839008927345276
3.576352834701538 4.967737197875977 0.2672559916973114
3.541879415512085 4.965400695800781 0.26629638671875
0.0 0.0 0.0
2.939126491546631 4.1973958015441895 0.22372384369373322
2.496532917022705 3.5986409187316895 0.19122740626335144
2.4960858821868896 3.6317296028137207 0.1924051195383072
2.1799583435058594 3.201611042022705 0.16911236941814423
2.128537178039551 3.155600070953369 0.16618987917900085
0.0 0.0 0.0
1.7480084896087646 2.6408798694610596 0.1382734626531601
1.7030543088912964 2.597517728805542 0.13561268150806427
1.674836277961731 2.5789499282836914 0.13426047563552856
1.6527581214904785 2.5694284439086914 0.13338808715343475
3.124706506729126 4.904669284820557 0.2539084553718567
1.32906174659729 2.1063759326934814 0.10874313116073608
1.3182700872421265 2.1096131801605225 0.10861227661371231
1.3085269927978516 2.1144955158233643 0.10856866091489792
2.5364573001861572 4.139002799987793 0.21194660663604736
2.470172643661499 4.070600509643555 0.20789000391960144
2.2064285278320312 3.672006845474243 0.18703994154930115
0.0 0.0 0.0
1.2042827606201172 2.044405937194824 0.1035960465669632
1.196860909461975 2.0522301197052 0.10372690111398697
1.1898932456970215 2.0608937740325928 0.10390138626098633
2.773256301879883 4.852046012878418 0.24400687217712402
1.7538596391677856 3.0998423099517822 0.15550312399864197
1.7408056259155273 3.108337163925171 0.15554673969745636
2.681414842605591 4.837251663208008 0.24147693812847137
0.8640154004096985 1.574843168258667 0.07842766493558884
0.8552287817001343 1.575086236000061 0.07825317978858948
0.8563870787620544 1.5937635898590088 0.07899471372365952
0.8475487232208252 1.593956708908081 0.07882023602724075
2.138911485671997 4.065271854400635 0.20056194067001343
2.1086976528167725 4.050639629364014 0.19938422739505768
1.3270621299743652 2.576566457748413 0.12653984129428864
1.3085501194000244 2.5680902004241943 0.12584194540977478
1.2802444696426392 2.53987455368042 0.12418439984321594
1.262909173965454 2.532919406890869 0.12357372790575027
1.2461007833480835 2.5267574787139893 0.1230066791176796
2.338737964630127 4.794960975646973 0.23292753100395203
1.6892986297607422 3.5021586418151855 0.16976666450500488
1.6709908246994019 3.5031843185424805 0.16946132481098175
2.2186665534973145 4.704082489013672 0.2270825356245041
2.1871423721313477 4.690176963806152 0.22594843804836273
2.190080165863037 4.750482559204102 0.2283911108970642
2.176374912261963 4.775447845458984 0.22913265228271484
2.1485416889190674 4.769413471221924 0.2283911108970642
0.9090315699577332 2.0416438579559326 0.0975765660405159
0.899712324142456 2.0446763038635254 0.09753295034170151
0.8899855017662048 2.04675030708313 0.09744571894407272
0.0 0.0 0.0
1.2780773639678955 3.0108470916748047 0.1428098827600479
1.2552690505981445 2.9933621883392334 0.14171938598155975
0.6426998972892761 1.5515546798706055 0.07332419604063034
0.6340324282646179 1.5497208833694458 0.07310609519481659
0.6250188946723938 1.54691481590271 0.07284437865018845
0.618263304233551 1.5496271848678589 0.07284437865018845
0.610763669013977 1.5504511594772339 0.07275713980197906
1.83406662940979 4.71610164642334 0.22093220055103302
1.8002241849899292 4.689549922943115 0.21931828558444977
1.3238359689712524 3.494058847427368 0.16313651204109192
1.3120765686035156 3.509159564971924 0.16357271373271942
1.7362654209136963 4.706151485443115 0.21901296079158783
0.913384735584259 2.509394884109497 0.11659462749958038
0.9031020998954773 2.5152370929718018 0.11668186634778976
0.8924522399902344 2.5200953483581543 0.11672548204660416
0.8735425472259521 2.501328945159912 0.11567862331867218
0.8531873822212219 2.4777228832244873 0.11441365629434586
0.8407624363899231 2.476691722869873 0.1141955554485321
0.8283628821372986 2.475599765777588 0.11397746205329895
0.0 0.0 0.0
0.0 0.0 0.0
0.0 0.0 0.0
0.0 0.0 0.0
1.4567739963531494 4.691343307495117 0.2144765406847
1.4266510009765625 4.6661272048950195 0.21303710341453552
0.6023613810539246 2.00132417678833 0.09125176072120667
0.5956096649169922 2.010638952255249 0.0915571004152298
0.5873900651931763 2.01513671875 0.09164433181285858
0.5708810687065125 1.9907909631729126 0.09042299538850784
0.5564939975738525 1.9730703830718994 0.08950698375701904
0.5465446710586548 1.9706662893295288 0.08928889036178589
0.5379409193992615 1.9730323553085327 0.08928889036178589
0.5251895189285278 1.9599206447601318 0.08859097957611084
0.9070963859558105 3.445190906524658 0.15554673969745636
0.8888033032417297 3.436541795730591 0.15497969090938568
1.1760519742965698 4.630434036254883 0.2085879147052765
0.8474203944206238 3.398607015609741 0.15292958915233612
0.832345724105835 3.401301622390747 0.15288595855236053
0.8170305490493774 3.4029581546783447 0.15279872715473175
0.5805060267448425 2.4651594161987305 0.11057514697313309
0.569744348526001 2.4676690101623535 0.11057514697313309
0.5554437041282654 2.454540729522705 0.10987723618745804
0.5412685871124268 2.4413352012634277 0.10917932540178299
0.5280673503875732 2.4319581985473633 0.1086558997631073
0.5168278217315674 2.431307554244995 0.10852503776550293
0.5080456137657166 2.442342519760132 0.10891761630773544
0.5655080080032349 2.7793502807617188 0.12383545190095901
0.5847575068473816 2.939547061920166 0.1308581680059433
0.5717352032661438 2.941089630126953 0.1308145374059677
0.8345250487327576 4.395213603973389 0.19532762467861176
0.8408302068710327 4.536336898803711 0.20143432915210724
0.8283183574676514 4.580270290374756 0.20322273671627045
0.5088684558868408 2.8856844902038574 0.12793566286563873
0.4959341883659363 2.8859081268310547 0.12784843146800995
0.7648307681083679 4.570027828216553 0.20230671763420105
0.7445619702339172 4.571349143981934 0.20221948623657227
0.530483603477478 3.349015712738037 0.14804419875144958
0.22373442351818085 1.4534802436828613 0.06420774012804031
0.2193102091550827 1.4672874212265015 0.06477478891611099
0.21304930746555328 1.4692190885543823 0.06481841206550598
0.2067757248878479 1.4711241722106934 0.06486203521490097
0.19995060563087463 1.4690425395965576 0.0647311732172966
0.0 0.0 0.0
0.5748622417449951 4.518237113952637 0.1988607794046402
0.5474710464477539 4.458232402801514 0.19611278176307678
0.5256645083427429 4.440736293792725 0.19524039328098297
0.5144272446632385 4.514456272125244 0.1983809918165207
0.4971175789833069 4.538506031036377 0.1993406116962433
0.476578950881958 4.533677101135254 0.19903527200222015
0.19471001625061035 1.9333689212799072 0.08483970910310745
0.18627232313156128 1.9342001676559448 0.08483970910310745
0.17709964513778687 1.9270355701446533 0.08449075371026993
0.16834141314029694 1.9238090515136719 0.08431627601385117
0.3753303587436676 4.51611328125 0.1978575438261032
0.35507291555404663 4.510735988616943 0.19755221903324127
0.1403312087059021 1.8879883289337158 0.08265874534845352
0.1322314590215683 1.890575885772705 0.0827459767460823
0.12679140269756317 1.9340019226074219 0.0846216157078743
0.13787350058555603 2.2536354064941406 0.09857981652021408
0.15262697637081146 2.687105178833008 0.11751063913106918
0.14236535131931305 2.7156803607940674 0.11873197555541992
0.11531516164541245 2.399942398071289 0.10490463674068451
0.10253196954727173 2.3475234508514404 0.10259279608726501
0.09460312873125076 2.406846761703491 0.10516634583473206
0.09627429395914078 2.7556920051574707 0.12038952112197876
0.08608102053403854 2.8160009384155273 0.1230066791176796
0.07429037988185883 2.835325241088867 0.12383545190095901
0.09426242858171463 4.31685733795166 0.18852299451828003
0.07779928296804428 4.453077793121338 0.19445523619651794
0.05861726030707359 4.472354888916016 0.19528400897979736
0.0390588752925396 4.467573165893555 0.19506590068340302
0.0065363203175365925 1.4925638437271118 0.0651673674583435
2.372952258156147e-05 1.4895809888839722 0.06503650546073914
-0.006484422832727432 1.4915649890899658 0.06512374430894852
-0.012940270826220512 1.4855284690856934 0.06486203521490097
-0.05813518166542053 4.446383953094482 0.1941498965024948
-0.07762256264686584 4.451082706451416 0.19436800479888916
-0.09713027626276016 4.4546966552734375 0.19454246759414673
-0.116514191031456 4.452232837677002 0.19445523619651794
-0.13539054989814758 4.4337077140808105 0.19367007911205292
-0.0 0.0 0.0
-0.075825035572052 1.930670976638794 0.08435989916324615
-0.08437906205654144 1.9333159923553467 0.08449075371026993
-0.09300553798675537 1.9369211196899414 0.08466523140668869
-0.10568985342979431 2.0173089504241943 0.08819840103387833
-0.1340823620557785 2.361943483352661 0.10329070687294006
-0.0 0.0 0.0
-0.15429678559303284 2.3547022342681885 0.10302900522947311
-0.16443020105361938 2.352013349533081 0.10294175893068314
-0.17306266725063324 2.329354763031006 0.10198213160037994
-0.16574855148792267 2.106476068496704 0.09225500375032425
-0.15905722975730896 1.9145742654800415 0.08388008177280426
-0.1651460826396942 1.8879854679107666 0.0827459767460823
-0.17347373068332672 1.8882417678833008 0.0827895998954773
-0.42354559898376465 4.399448871612549 0.19297218322753906
-0.44313788414001465 4.4015350341796875 0.19314664602279663
-0.4625476896762848 4.401546955108643 0.1932338923215866
-0.48185721039772034 4.400479793548584 0.193277508020401
-0.5011662244796753 4.399327754974365 0.1933211237192154
-0.5201221704483032 4.395115375518799 0.1932338923215866
-0.5389291644096375 4.389828681945801 0.19310303032398224
-0.5579520463943481 4.386444568634033 0.19305941462516785
-0.5773468017578125 4.38594913482666 0.19314664602279663
-0.5960743427276611 4.38041877746582 0.19301579892635345
-0.6150426864624023 4.376787185668945 0.19297218322753906
-0.627683699131012 4.3295698165893555 0.1910092979669571
-0.6053738594055176 4.051115989685059 0.17883950471878052
-0.6238040328025818 4.053372859954834 0.17905758321285248
-0.69586580991745 4.3940019607543945 0.1942371279001236
-0.529890775680542 3.2539970874786377 0.14394398033618927
-0.5457326173782349 3.261507511138916 0.14438018202781677
-0.5602966547012329 3.2610645294189453 0.14446742832660675
-0.5712243914604187 3.2398951053619385 0.14363865554332733
-0.7727119326591492 4.273566722869873 0.189613476395607
-0.5179191827774048 2.7947065830230713 0.12409715354442596
-0.5317853689193726 2.8012540340423584 0.12448973208665848
-0.5422874689102173 2.7900805473327637 0.12409715354442596
-0.8337306976318359 4.1918206214904785 0.18660375475883484
-0.8522120118141174 4.189121723175049 0.18664737045764923
-0.8704822063446045 4.185363292694092 0.18664737045764923
-0.8874896764755249 4.175662040710449 0.1863856464624405
-0.04302767664194107 0.1981898546218872 0.008854735642671585
-0.04410824179649353 0.1989755928516388 0.008898355066776276
-0.04519648104906082 0.19975565373897552 0.008941974490880966
-0.04584292322397232 0.19858311116695404 0.008898355066776276
-0.04602206498384476 0.19546382129192352 0.008767496794462204
-0.047574110329151154 0.19817550480365753 0.008898355066776276
-0.053662095218896866 0.219315305352211 0.009857981465756893
-0.05582689493894577 0.22392596304416656 0.010076078586280346
-0.05532800406217575 0.21787036955356598 0.009814362041652203
-0.056528232991695404 0.21859411895275116 0.009857981465756893
-0.059007540345191956 0.2241421639919281 0.010119698010385036
-0.06153630465269089 0.2296726107597351 0.01038141455501318
-0.06227508559823036 0.22843806445598602 0.01033779513090849
-0.06247033178806305 0.22527602314949036 0.010206936858594418
-0.06291034817695618 0.22307820618152618 0.010119698010385036
-0.06333238631486893 0.22088086605072021 0.010032459162175655
-0.06401600688695908 0.21964330971240997 0.00998884066939354
-0.0658249482512474 0.22223563492298126 0.010119698010385036
-0.06708190590143204 0.22290296852588654 0.010163317434489727
-0.06776177883148193 0.22165274620056152 0.010119698010385036
-0.06932075321674347 0.2232632040977478 0.010206936858594418
-0.07089506089687347 0.22486424446105957 0.010294175706803799
-0.07218008488416672 0.22550426423549652 0.01033779513090849
-0.07378075271844864 0.22708748281002045 0.01042503397911787
-0.07320664823055267 0.22201938927173615 0.010206936858594418
-0.07354071736335754 0.21980300545692444 0.010119698010385036
-0.07449907809495926 0.21948003768920898 0.010119698010385036
-0.07545602321624756 0.21915288269519806 0.010119698010385036
-0.0773996114730835 0.22165115177631378 0.010250556282699108
-0.07903295010328293 0.22319482266902924 0.01033779513090849
-0.08135636895895004 0.226609006524086 0.010512272827327251
-0.08166100084781647 0.22437426447868347 0.01042503397911787
-0.08125615119934082 0.22026659548282623 0.010250556282699108
-0.08186660706996918 0.21897415816783905 0.010206936858594418
-0.08282127231359482 0.2186148762702942 0.010206936858594418
-0.08449038118124008 0.22011680901050568 0.010294175706803799
-0.08581208437681198 0.2206771969795227 0.01033779513090849
-0.08750642091035843 0.222159743309021 0.01042503397911787
-0.08884511888027191 0.222703754901886 0.010468653403222561
-0.08831906318664551 0.21860873699188232 0.010294175706803799
-0.08851552754640579 0.21637196838855743 0.010206936858594418
-0.0898410826921463 0.21690669655799866 0.010250556282699108
-0.0904003232717514 0.21559129655361176 0.010206936858594418
-0.09173049032688141 0.21611443161964417 0.010250556282699108
-0.09464434534311295 0.22030174732208252 0.010468653403222561
-0.09440962225198746 0.2171381115913391 0.01033779513090849
-0.0945514664053917 0.21489521861076355 0.010250556282699108
-0.0975198820233345 0.219044029712677 0.010468653403222561
-0.0976540744304657 0.21679462492465973 0.01038141455501318
-0.09777052700519562 0.2145482748746872 0.010294175706803799
-0.10037873685359955 0.217748761177063 0.010468653403222561
-0.10006128251552582 0.2145923525094986 0.01033779513090849
-0.10057050734758377 0.21325011551380157 0.010294175706803799
-0.10365045070648193 0.21731793880462646 0.010512272827327251
-0.10372965037822723 0.2150639146566391 0.01042503397911787
-0.10335323214530945 0.21191541850566864 0.010294175706803799
-0.10516059398651123 0.21325448155403137 0.01038141455501318
-0.10609008371829987 0.21279361844062805 0.01038141455501318
-0.10611825436353683 0.2105444222688675 0.010294175706803799
-0.1074894517660141 0.21096956729888916 0.01033779513090849
-0.10703667998313904 0.20783400535583496 0.010206936858594418
-0.10609732568264008 0.20382028818130493 0.010032459162175655
-0.11024173349142075 0.20954449474811554 0.01033779513090849
-0.11162398755550385 0.20994359254837036 0.01038141455501318
-0.11159326881170273 0.20769444108009338 0.010294175706803799
-0.1129751205444336 0.20808354020118713 0.01033779513090849
-0.11484300345182419 0.2093404233455658 0.01042503397911787
-0.11478666216135025 0.20708973705768585 0.01033779513090849
-0.11666543781757355 0.20833027362823486 0.01042503397911787
-0.11904914677143097 0.21042785048484802 0.010555892251431942
-0.1169918030500412 0.20470210909843445 0.010294175706803799
-0.11688484996557236 0.20245927572250366 0.010206936858594418
-0.1182704046368599 0.2028103619813919 0.010250556282699108
-0.11864715814590454 0.20143157243728638 0.010206936858594418
-0.11594939976930618 0.19490177929401398 0.009901601821184158
-0.11474058032035828 0.1909685581922531 0.009727123193442822
-0.1155727356672287 0.19046609103679657 0.009727123193442822
-0.12005658447742462 0.1959228664636612 0.010032459162175655
-0.1235387995839119 0.19964493811130524 0.010250556282699108
-0.12652632594108582 0.20249299705028534 0.01042503397911787
-0.12634247541427612 0.20024913549423218 0.01033779513090849
-0.12345760315656662 0.1937977522611618 0.010032459162175655
-0.12430202215909958 0.19325722754001617 0.010032459162175655
-0.12351176887750626 0.19019939005374908 0.009901601821184158
-0.12707926332950592 0.19383616745471954 0.010119698010385036
-0.12847521901130676 0.19411294162273407 0.010163317434489727
-0.13043101131916046 0.19521190226078033 0.010250556282699108
-0.13072289526462555 0.19381266832351685 0.010206936858594418
-0.12650702893733978 0.18580812215805054 0.009814362041652203
-0.12731654942035675 0.18525436520576477 0.009814362041652203
-0.12299871444702148 0.17730920016765594 0.009421788156032562
-0.1254902333021164 0.17922598123550415 0.009552646428346634
-0.13088369369506836 0.18520373106002808 0.009901601821184158
-0.13111041486263275 0.1838175356388092 0.009857981465756893
-0.13716430962085724 0.19054102897644043 0.010250556282699108
-0.13858160376548767 0.19074898958206177 0.010294175706803799
-0.13764038681983948 0.18772543966770172 0.010163317434489727
-0.1438063383102417 0.19435101747512817 0.010555892251431942
-0.14405524730682373 0.19292119145393372 0.010512272827327251
-0.13948459923267365 0.18510982394218445 0.010119698010385036
-0.13908155262470245 0.18290892243385315 0.010032459162175655
-0.1398783028125763 0.18230032920837402 0.010032459162175655
-0.1412840336561203 0.18247821927070618 0.010076078586280346
-0.14330901205539703 0.18343457579612732 0.010163317434489727
-0.14410802721977234 0.18280752003192902 0.010163317434489727
-0.14614811539649963 0.1837407499551773 0.010250556282699108
-0.1469484269618988 0.18310131132602692 0.010250556282699108
-0.14837466180324554 0.1832348108291626 0.010294175706803799
-0.14917275309562683 0.182585671544075 0.010294175706803799
-0.14933255314826965 0.18116214871406555 0.010250556282699108
-0.15139922499656677 0.1820450872182846 0.01033779513090849
-0.15283425152301788 0.1821480691432953 0.01038141455501318
-0.15491855144500732 0.18300452828407288 0.010468653403222561
-0.1570132076740265 0.18384622037410736 0.010555892251431942
-0.1578138917684555 0.18315938115119934 0.010555892251431942
-0.15926697850227356 0.18322305381298065 0.010599511675536633
-0.1580888032913208 0.18027296662330627 0.010468653403222561
-0.15953585505485535 0.18032972514629364 0.010512272827327251
-0.15766024589538574 0.17665046453475952 0.01033779513090849
-0.15642407536506653 0.17373351752758026 0.010206936858594418
-0.15785235166549683 0.1737888604402542 0.010250556282699108
-0.15658433735370636 0.17088869214057922 0.010119698010385036
-0.15732848644256592 0.17020383477210999 0.010119698010385036
-0.16079497337341309 0.17243842780590057 0.010294175706803799
-0.15949229896068573 0.16955211758613586 0.010163317434489727
-0.16229362785816193 0.17102868854999542 0.010294175706803799
-0.16511085629463196 0.17248401045799255 0.01042503397911787
-0.16586187481880188 0.17176192998886108 0.01042503397911787
-0.16521552205085754 0.1696053296327591 0.01033779513090849
-0.16525375843048096 0.1681702435016632 0.010294175706803799
-0.16809594631195068 0.16957616806030273 0.01042503397911787
-0.16954068839550018 0.16954755783081055 0.010468653403222561
-0.16815036535263062 0.16669610142707825 0.01033779513090849
-0.16887611150741577 0.16596083343029022 0.01033779513090849
-0.17460787296295166 0.17010238766670227 0.010643131099641323
-0.17750434577465057 0.17142093181610107 0.010773989371955395
-0.1804155856370926 0.1727174073457718 0.010904846712946892
-0.18768952786922455 0.17811799049377441 0.011297421529889107
-0.1950138807296753 0.18345825374126434 0.011689996346831322
-0.1965431571006775 0.18328697979450226 0.011733615770936012
-0.20100907981395721 0.18581852316856384 0.011951712891459465
-0.20329107344150543 0.18628962337970734 0.012038951739668846
-0.19536949694156647 -0.1790231615304947 0.02318342588841915
-0.1931234449148178 -0.17852146923542023 0.02300911396741867
-0.19234266877174377 -0.17936241626739502 0.02300911396741867
-0.19518624246120453 -0.1836128532886505 0.023444894701242447
-0.19149278104305267 -0.1817198246717453 0.023096270859241486
-0.1842215210199356 -0.17635369300842285 0.022311870008707047
-0.18201705813407898 -0.1757717877626419 0.022137558087706566
-0.179107666015625 -0.1744789034128189 0.02187609113752842
-0.17550250887870789 -0.17246577143669128 0.021527467295527458
-0.17616328597068787 -0.17463256418704987 0.02170177921652794
-0.17539964616298676 -0.1753995567560196 0.02170177921652794
-0.17463265359401703 -0.1761632114648819 0.02170177921652794
-0.17316409945487976 -0.17621296644210815 0.021614624187350273
-0.1723935902118683 -0.1769668608903885 0.021614624187350273
-0.17161978781223297 -0.17771737277507782 0.021614624187350273
-0.16877608001232147 -0.1763056516647339 0.021353155374526978
-0.16731946170330048 -0.17631779611110687 0.02126600220799446
-0.16723111271858215 -0.17777176201343536 0.021353155374526978
-0.1644156575202942 -0.17631404101848602 0.02109169028699398
-0.16161611676216125 -0.1748351752758026 0.020830221474170685
-0.16085173189640045 -0.17553868889808655 0.020830221474170685
-0.16209369897842407 -0.1784510612487793 0.02109169028699398
-0.16198012232780457 -0.17989695072174072 0.021178845316171646
-0.15920358896255493 -0.1783723384141922 0.0209173783659935
-0.1584237813949585 -0.1790652871131897 0.0209173783659935
-0.1576409637928009 -0.179754838347435 0.0209173783659935
-0.15489445626735687 -0.17818544805049896 0.020655911415815353
-0.15541604161262512 -0.18036895990371704 0.020830221474170685
-0.15592151880264282 -0.18256038427352905 0.021004533395171165
-0.15576714277267456 -0.18399931490421295 0.02109169028699398
-0.15624350309371948 -0.1862034797668457 0.02126600220799446
-0.15734057128429413 -0.18918117880821228 0.021527467295527458
-0.1577809453010559 -0.19140326976776123 0.02170177921652794
-0.15883518755435944 -0.1944042444229126 0.021963246166706085
-0.15861237049102783 -0.19586962461471558 0.0220504030585289
-0.15962684154510498 -0.1988905817270279 0.022311870008707047
-0.16371867060661316 -0.2058221995830536 0.02300911396741867
-0.16836969554424286 -0.213575541973114 0.02379351668059826
-0.16559624671936035 -0.21195313334465027 0.023532049730420113
-0.16466985642910004 -0.21267364919185638 0.023532049730420113
-0.1643468141555786 -0.21418049931526184 0.023619206622242928
-0.16401369869709015 -0.21568849682807922 0.023706361651420593
-0.16247150301933289 -0.21560651063919067 0.023619206622242928
-0.1579529047012329 -0.2115241289138794 0.023096270859241486
-0.15939870476722717 -0.21541449427604675 0.023444894701242447
-0.15904632210731506 -0.21691130101680756 0.023532049730420113
-0.15341398119926453 -0.2111557275056839 0.02283480577170849
-0.15365521609783173 -0.21344004571437836 0.02300911396741867
-0.15098696947097778 -0.21167540550231934 0.022747648879885674
-0.14891204237937927 -0.21070513129234314 0.022573336958885193
-0.14741988480091095 -0.21053685247898102 0.022486181929707527
-0.1442285180091858 -0.20790398120880127 0.022137558087706566
-0.14388427138328552 -0.20935232937335968 0.02222471497952938
-0.14577274024486542 -0.2140953540802002 0.022660493850708008
-0.14205187559127808 -0.21059997379779816 0.02222471497952938
-0.1367039531469345 -0.2045913189649582 0.021527467295527458
-0.13910898566246033 -0.21017013490200043 0.0220504030585289
-0.1343671679496765 -0.20494335889816284 0.021440312266349792
-0.13021625578403473 -0.20051483809947968 0.0209173783659935
-0.13041795790195465 -0.20275676250457764 0.02109169028699398
-0.12899675965309143 -0.20248369872570038 0.021004533395171165
-0.1302383840084076 -0.20641465485095978 0.021353155374526978
-0.13197602331638336 -0.21120505034923553 0.021788934245705605
-0.1273837387561798 -0.20584911108016968 0.021178845316171646
-0.12804587185382843 -0.20895111560821533 0.021440312266349792
-0.12868334352970123 -0.21206282079219818 0.02170177921652794
-0.12621758878231049 -0.21006055176258087 0.021440312266349792
-0.1247904822230339 -0.209753155708313 0.021353155374526978
-0.12084043025970459 -0.20514555275440216 0.020830221474170685
-0.11994417011737823 -0.20567086338996887 0.020830221474170685
-0.1220342218875885 -0.2113686352968216 0.021353155374526978
-0.12111079692840576 -0.21189908683300018 0.021353155374526978
-0.11626067012548447 -0.2054891735315323 0.020655911415815353
-0.11438942700624466 -0.20425614714622498 0.020481599494814873
-0.11349710822105408 -0.2047533243894577 0.020481599494814873
-0.11260262876749039 -0.20524659752845764 0.020481599494814873
-0.11123066395521164 -0.20486047863960266 0.020394442602992058
-0.11222181469202042 -0.20885400474071503 0.02074306644499302
-0.11318020522594452 -0.21286003291606903 0.02109169028699398
-0.10993114113807678 -0.20894375443458557 0.020655911415815353
-0.10671844333410263 -0.20500324666500092 0.020220132544636726
-0.10627907514572144 -0.20635256171226501 0.020307287573814392
-0.10944807529449463 -0.21480286121368408 0.02109169028699398
-0.10985494405031204 -0.2179471105337143 0.021353155374526978
-0.10267990827560425 -0.20594295859336853 0.02013297565281391
-0.10178034007549286 -0.20638902485370636 0.02013297565281391
-0.10480918735265732 -0.2148895263671875 0.0209173783659935
-0.1012738049030304 -0.2099611759185791 0.020394442602992058
-0.1012144684791565 -0.2121993601322174 0.02056875452399254
-0.10028761625289917 -0.2126389592885971 0.02056875452399254
-0.1014639139175415 -0.21758881211280823 0.021004533395171165
-0.10009647905826569 -0.21712477505207062 0.0209173783659935
