# .PCD v0.7 - Point Cloud Data file format
VERSION 0.7
FIELDS x y z
SIZE 4 4 4
TYPE F F F
COUNT 1 1 1
WIDTH 852
HEIGHT 1
VIEWPOINT 0 0 0 1 0 0 0
POINTS 852
DATA ascii
-0.07054159790277481 -0.23438148200511932 -0.010686749592423439
-0.07093699276447296 -0.23947657644748688 -0.010904846712946892
-0.06961184740066528 -0.23882469534873962 -0.010861228220164776
-0.06664147973060608 -0.2324037253856659 -0.010555892251431942
-0.06535561382770538 -0.23173075914382935 -0.010512272827327251
-0.0651448518037796 -0.23490186035633087 -0.010643131099641323
-0.06490764021873474 -0.23807546496391296 -0.010773989371955395
-0.06386822462081909 -0.23835641145706177 -0.010773989371955395
-0.06257323920726776 -0.23766668140888214 -0.01073036901652813
-0.062286071479320526 -0.2408391386270523 -0.010861228220164776
-0.06148054823279381 -0.24207690358161926 -0.010904846712946892
-0.06042371317744255 -0.24234285950660706 -0.010904846712946892
-0.058178409934043884 -0.23775210976600647 -0.010686749592423439
-0.056907255202531815 -0.23703226447105408 -0.010643131099641323
-0.05747537314891815 -0.24408547580242157 -0.010948467068374157
-0.05663454905152321 -0.24530737102031708 -0.010992085561156273
-0.054240718483924866 -0.2397056668996811 -0.01073036901652813
-0.0510319322347641 -0.23018640279769897 -0.010294175706803799
-0.04811926558613777 -0.22162017226219177 -0.009901601821184158
-0.0481904000043869 -0.2267141044139862 -0.010119698010385036
-0.04638691991567612 -0.22300976514816284 -0.009945221245288849
-0.042624879628419876 -0.2095041573047638 -0.009334549307823181
-0.04190525412559509 -0.21066799759864807 -0.009378168731927872
-0.04403574764728546 -0.22653990983963013 -0.010076078586280346
-0.04546942189335823 -0.2394895851612091 -0.010643131099641323
-0.4151097536087036 -2.2396860122680664 -0.09945221245288849
-0.40373340249061584 -2.232628107070923 -0.09905963391065598
-0.39364099502563477 -2.23240065574646 -0.098972387611866
-0.3838966488838196 -2.2340970039367676 -0.098972387611866
-0.37348541617393494 -2.231809377670288 -0.09879791736602783
-0.3634226322174072 -2.231445550918579 -0.09871067106723785
-0.3536827564239502 -2.2330100536346436 -0.09871067106723785
-0.34332820773124695 -2.2305824756622314 -0.09853620082139969
-0.3327062427997589 -2.226130723953247 -0.09827447682619095
-0.3228464722633362 -2.2265725135803223 -0.09823086112737656
-0.31285011768341064 -2.2259812355041504 -0.09814362227916718
-0.3029998540878296 -2.226335287094116 -0.09810000658035278
-0.2932828366756439 -2.2276360988616943 -0.09810000658035278
-0.28381240367889404 -2.230876922607422 -0.09818724542856216
-0.273832231760025 -2.2301106452941895 -0.09810000658035278
-0.26398158073425293 -2.230292320251465 -0.09805639088153839
-0.25402146577835083 -2.2294375896453857 -0.09796914458274841
-0.2438563108444214 -2.2265522480010986 -0.09779466688632965
-0.23424333333969116 -2.228588581085205 -0.09783828258514404
-0.224417045712471 -2.228595495223999 -0.09779466688632965
-0.21430788934230804 -2.2255756855010986 -0.09762019664049149
-0.2043207734823227 -2.2235050201416016 -0.09748933464288712
-0.19461704790592194 -2.2243754863739014 -0.09748933464288712
-0.18499232828617096 -2.22619891166687 -0.09753295034170151
-0.17527703940868378 -2.226984977722168 -0.09753295034170151
-0.16518819332122803 -2.2227470874786377 -0.09731485694646835
-0.15541844069957733 -2.222450017929077 -0.09727123379707336
-0.14565443992614746 -2.2221100330352783 -0.09722761809825897
-0.1357133686542511 -2.218735694885254 -0.09705314040184021
-0.1260877400636673 -2.220304250717163 -0.0970967561006546
-0.11618956923484802 -2.2168426513671875 -0.09692228585481644
-0.10632400214672089 -2.213336944580078 -0.09674780815839767
-0.09666556864976883 -2.2137796878814697 -0.09674780815839767
-0.08712298423051834 -2.217175245285034 -0.09687867015600204
-0.07737824320793152 -2.2155373096466064 -0.09679142385721207
-0.0675884336233139 -2.211859703063965 -0.0966169461607933
-0.057962968945503235 -2.21313214302063 -0.0966605618596077
-0.048349492251873016 -2.2153615951538086 -0.09674780815839767
-0.03866533562541008 -2.214552402496338 -0.09670417755842209
-0.028976082801818848 -2.2127022743225098 -0.0966169461607933
-0.019321156665682793 -2.2128076553344727 -0.0966169461607933
-0.009665862657129765 -2.2128708362579346 -0.0966169461607933
-1.0389510862296447e-05 -2.21389102935791 -0.0966605618596077
0.009649447165429592 -2.213870048522949 -0.0966605618596077
0.019282959401607513 -2.2108097076416016 -0.09652970731258392
0.028955314308404922 -2.212702512741089 -0.0966169461607933
0.018006233498454094 -1.0318597555160522 -0.045058827847242355
0.022464780136942863 -1.0297737121582031 -0.044971588999032974
0.02693161554634571 -1.0286672115325928 -0.04492797330021858
0.031358715146780014 -1.0265426635742188 -0.0448407307267189
0.03587237745523453 -1.0273945331573486 -0.04488435015082359
0.040550943464040756 -1.0322197675704956 -0.045102447271347046
0.04540300741791725 -1.0400177240371704 -0.04545140266418457
0.10524882376194 -2.1913840770721436 -0.09578818082809448
0.07638278603553772 -1.4576095342636108 -0.06372793018817902
0.0826287567615509 -1.4552675485610962 -0.06364069133996964
0.08885574340820312 -1.4528987407684326 -0.06355344504117966
0.09519430994987488 -1.452497124671936 -0.06355344504117966
0.0 -0.0 -0.0
0.16250215470790863 -2.1868817806243896 -0.09574456512928009
0.17368854582309723 -2.2070672512054443 -0.0966605618596077
0.1831514984369278 -2.2042970657348633 -0.09657332301139832
0.19320307672023773 -2.2084531784057617 -0.09679142385721207
0.20238029956817627 -2.2026147842407227 -0.09657332301139832
0.2116060107946396 -2.197733163833618 -0.09639884531497955
0.22149360179901123 -2.199770927429199 -0.09652970731258392
0.23140299320220947 -2.2017643451690674 -0.0966605618596077
0.24155151844024658 -2.2056994438171387 -0.09687867015600204
0.25072091817855835 -2.2006537914276123 -0.09670417755842209
0.2592638432979584 -2.190609931945801 -0.09631161391735077
0.2697935998439789 -2.197390556335449 -0.0966605618596077
0.28580862283706665 -2.246736526489258 -0.09888515621423721
0.31360378861427307 -2.382157325744629 -0.10490463674068451
0.3324820399284363 -2.443131685256958 -0.10765265673398972
0.34397315979003906 -2.4475936889648438 -0.10791437327861786
0.32712608575820923 -2.2562367916107178 -0.09953944385051727
0.28026488423347473 -1.8753671646118164 -0.0827895998954773
0.28160619735717773 -1.8296924829483032 -0.08082672208547592
0.2900558114051819 -1.831406593322754 -0.08095758408308029
0.29691991209983826 -1.823221206665039 -0.08065225183963776
0.30371811985969543 -1.8150107860565186 -0.08034691959619522
0.8339018821716309 -4.853187561035156 -0.2149999737739563
0.8550697565078735 -4.8495025634765625 -0.2149999737739563
0.876754641532898 -4.848674774169922 -0.21513082087039948
0.8980845212936401 -4.845785140991211 -0.21517443656921387
0.9192194938659668 -4.84182071685791 -0.21517443656921387
0.9409089088439941 -4.840705871582031 -0.21530531346797943
0.9628008604049683 -4.840473651885986 -0.215479776263237
0.9841113090515137 -4.83720588684082 -0.21552340686321259
1.0054115056991577 -4.833844184875488 -0.21556702256202698
1.0269087553024292 -4.831365585327148 -0.21565425395965576
1.0484035015106201 -4.82879114151001 -0.21574148535728455
1.0694628953933716 -4.8241705894470215 -0.21574148535728455
1.0902814865112305 -4.818484306335449 -0.21569786965847015
1.111744999885559 -4.815627574920654 -0.21578510105609894
1.1334333419799805 -4.813648700714111 -0.2159159779548645
1.154425859451294 -4.808657169342041 -0.2159159779548645
1.1756337881088257 -4.804544925689697 -0.2159595936536789
1.197069525718689 -4.8013081550598145 -0.21604682505130768
1.2182536125183105 -4.797008037567139 -0.21609045565128326
1.2394229173660278 -4.792613983154297 -0.21613408625125885
1.2613400220870972 -4.791024684906006 -0.21630854904651642
1.2832669019699097 -4.78933572769165 -0.21648302674293518
1.3046773672103882 -4.785618305206299 -0.21657025814056396
1.3258129358291626 -4.7808427810668945 -0.21661387383937836
1.3472028970718384 -4.776935577392578 -0.21670113503932953
1.368308663368225 -4.771972179412842 -0.21674475073814392
0.0 -0.0 -0.0
1.1272950172424316 -3.805772542953491 -0.17329983413219452
1.1433141231536865 -3.7989041805267334 -0.17321258783340454
1.1055506467819214 -3.616175651550293 -0.1650993824005127
1.073325514793396 -3.4567511081695557 -0.15803304314613342
1.0784844160079956 -3.4205923080444336 -0.15659360587596893
1.0961403846740723 -3.424417495727539 -0.15698617696762085
1.1107629537582397 -3.418652057647705 -0.15694256126880646
1.1219145059585571 -3.4023873805999756 -0.15641912817955017
1.582763433456421 -4.7304840087890625 -0.2177916020154953
1.604994535446167 -4.728262901306152 -0.21800969541072845
1.626585841178894 -4.724049091339111 -0.21814057230949402
1.6485000848770142 -4.72067928314209 -0.2183150351047516
1.669749140739441 -4.715325355529785 -0.21840229630470276
1.6916577816009521 -4.711755752563477 -0.21857675909996033
1.7152756452560425 -4.7127790451049805 -0.21896934509277344
1.7382429838180542 -4.711811065673828 -0.21927466988563538
0.0 -0.0 -0.0
1.4441059827804565 -3.81173038482666 -0.1779671162366867
1.4600077867507935 -3.803527355194092 -0.17787986993789673
1.4740551710128784 -3.790602922439575 -0.1775745302438736
1.8849201202392578 -4.785243988037109 -0.22455261647701263
1.90763258934021 -4.781613826751709 -0.2247707098722458
1.9310976266860962 -4.779728889465332 -0.22507604956626892
1.9538260698318481 -4.775880813598633 -0.22529415786266327
1.9769397974014282 -4.772848129272461 -0.22555586695671082
1.4406489133834839 -3.435624599456787 -0.16265669465065002
1.4513319730758667 -3.419189929962158 -0.16217689216136932
1.468208909034729 -3.417414665222168 -0.16239498555660248
1.4858945608139038 -3.417389154434204 -0.1627003252506256
1.499584436416626 -3.408129930496216 -0.16256946325302124
1.5075329542160034 -3.3860387802124023 -0.1618279367685318
2.13572359085083 -4.741219997406006 -0.2270389199256897
2.1588761806488037 -4.737310886383057 -0.22730064392089844
2.181198835372925 -4.731474876403809 -0.227475106716156
2.2014007568359375 -4.721007347106934 -0.2274314910173416
2.222404956817627 -4.712260723114014 -0.227475106716156
2.2446651458740234 -4.706125736236572 -0.22764959931373596
2.2686500549316406 -4.703485488891602 -0.2279985398054123
2.290026903152466 -4.695337772369385 -0.22808577120304108
2.3122599124908447 -4.68888521194458 -0.22826026380062103
2.3282389640808105 -4.6698102951049805 -0.22782406210899353
2.33870005607605 -4.639980316162109 -0.22686444222927094
2.3498523235321045 -4.611928939819336 -0.22599205374717712
0.0 -0.0 -0.0
2.0920071601867676 -4.0187811851501465 -0.19781392812728882
2.1183605194091797 -4.026413917541504 -0.19864270091056824
2.131218433380127 -4.0083112716674805 -0.19820649921894073
2.152470588684082 -4.006014347076416 -0.19855545461177826
2.1780333518981934 -4.011510372161865 -0.1992969959974289
2.2051265239715576 -4.019486427307129 -0.2001693695783615
2.2303929328918457 -4.023807048797607 -0.20086728036403656
2.2576916217803955 -4.03147029876709 -0.20173966884613037
2.2865757942199707 -4.041580677032471 -0.20274291932582855
2.314103364944458 -4.04891300201416 -0.20361530780792236
2.3402397632598877 -4.053485870361328 -0.204356849193573
2.3669629096984863 -4.058770179748535 -0.20514197647571564
2.3952982425689697 -4.066481113433838 -0.20605801045894623
2.4227235317230225 -4.072303771972656 -0.20688675343990326
2.451789140701294 -4.080533981323242 -0.20784638822078705
2.4809722900390625 -4.088587284088135 -0.20880600810050964
2.509228229522705 -4.094759941101074 -0.20967839658260345
2.536007881164551 -4.098215103149414 -0.2104199379682541
2.562335968017578 -4.100666522979736 -0.21111783385276794
2.5866010189056396 -4.099586486816406 -0.21164128184318542
2.610905647277832 -4.098372459411621 -0.2121647149324417
2.635248899459839 -4.097024440765381 -0.212688148021698
2.6569089889526367 -4.091352462768555 -0.21299348771572113
2.6813087463378906 -4.089746475219727 -0.21351692080497742
2.7068474292755127 -4.089671611785889 -0.2141275852918625
2.727996349334717 -4.08280611038208 -0.21438930928707123
2.749695301055908 -4.076662063598633 -0.21469463407993317
2.774766206741333 -4.0753607749938965 -0.21526169776916504
2.797048568725586 -4.0698018074035645 -0.21561063826084137
2.8193352222442627 -4.0641255378723145 -0.2159595936536789
2.8404793739318848 -4.056695461273193 -0.21622131764888763
0.0 -0.0 -0.0
0.0 -0.0 -0.0
0.0 -0.0 -0.0
0.0 -0.0 -0.0
0.0 -0.0 -0.0
0.0 -0.0 -0.0
0.0 -0.0 -0.0
0.0 -0.0 -0.0
0.0 -0.0 -0.0
0.0 -0.0 -0.0
0.0 -0.0 -0.0
0.0 -0.0 -0.0
0.0 -0.0 -0.0
0.0 -0.0 -0.0
0.0 -0.0 -0.0
0.0 -0.0 -0.0
0.0 -0.0 -0.0
0.0 -0.0 -0.0
0.0 -0.0 -0.0
0.0 -0.0 -0.0
0.0 -0.0 -0.0
0.0 -0.0 -0.0
0.0 -0.0 -0.0
0.0 -0.0 -0.0
0.0 -0.0 -0.0
3.0504167079925537 -3.447930097579956 -0.20099814236164093
0.0 -0.0 -0.0
0.0 -0.0 -0.0
0.0 -0.0 -0.0
0.0 -0.0 -0.0
0.0 -0.0 -0.0
0.0 -0.0 -0.0
0.0 -0.0 -0.0
3.001779556274414 -3.1632726192474365 -0.19039863348007202
3.000354766845703 -3.134268045425415 -0.18943901360034943
3.0209414958953857 -3.12833309173584 -0.18987520039081573
3.0798757076263428 -3.1616382598876953 -0.19271045923233032
3.1972761154174805 -3.2536308765411377 -0.19916611909866333
0.0 -0.0 -0.0
0.0 -0.0 -0.0
0.0 -0.0 -0.0
0.0 -0.0 -0.0
0.0 -0.0 -0.0
0.0 -0.0 -0.0
0.0 -0.0 -0.0
0.0 -0.0 -0.0
0.0 -0.0 -0.0
0.0 -0.0 -0.0
0.0 -0.0 -0.0
3.2490074634552 -2.9772229194641113 -0.1924051195383072
3.2856311798095703 -2.984513759613037 -0.19380095601081848
3.3105008602142334 -2.9808449745178223 -0.19449885189533234
1.9013649225234985 -1.6970653533935547 -0.11127305775880814
1.9027657508850098 -1.6834571361541748 -0.11092410981655121
1.9033329486846924 -1.6692103147506714 -0.1105315312743187
1.9030582904815674 -1.6543351411819458 -0.11009533703327179
1.906474232673645 -1.6427550315856934 -0.10987723618745804
1.9083062410354614 -1.629879117012024 -0.1095719039440155
1.9054871797561646 -1.613145351409912 -0.10900484770536423
1.894140362739563 -1.589403510093689 -0.10795798897743225
1.8849272727966309 -1.5677082538604736 -0.10704198479652405
1.8763316869735718 -1.546759009361267 -0.10616958886384964
1.8714580535888672 -1.5290757417678833 -0.10551530122756958
1.8719007968902588 -1.5158655643463135 -0.10516634583473206
1.8707058429718018 -1.5014301538467407 -0.10473015159368515
1.865511417388916 -1.4839246273040771 -0.10407586395740509
1.858630895614624 -1.4652559757232666 -0.10333433747291565
1.8555594682693481 -1.4497512578964233 -0.10281089693307877
1.8539681434631348 -1.435524821281433 -0.10237470269203186
1.8507030010223389 -1.4201234579086304 -0.10185126960277557
1.8489294052124023 -1.4059875011444092 -0.10141507536172867
1.8478658199310303 -1.3924956321716309 -0.10102251172065735
1.8531235456466675 -1.383821725845337 -0.10097888112068176
1.8647654056549072 -1.3798826932907104 -0.1012842208147049
1.8780195713043213 -1.3770498037338257 -0.10167679190635681
1.9131067991256714 -1.38998281955719 -0.10324709117412567
1.9823956489562988 -1.4271509647369385 -0.10664940625429153
2.036590576171875 -1.4527169466018677 -0.10922295600175858
2.049436569213867 -1.4484295845031738 -0.1095719039440155
2.028730869293213 -1.4205633401870728 -0.10813246667385101
1.979912281036377 -1.3735438585281372 -0.10520996898412704
1.9718899726867676 -1.3552720546722412 -0.1044684424996376
1.9885200262069702 -1.3539648056030273 -0.10503549128770828
2.005175828933716 -1.352537989616394 -0.10560253262519836
2.0177037715911865 -1.3482164144515991 -0.10595149546861649
2.0343973636627197 -1.3465683460235596 -0.10651855170726776
2.0494437217712402 -1.3437044620513916 -0.10699836164712906
2.0561251640319824 -1.3352935314178467 -0.10704198479652405
2.0652928352355957 -1.3284711837768555 -0.10721646249294281
2.0946617126464844 -1.3344773054122925 -0.10843779891729355
2.137640953063965 -1.3487820625305176 -0.11035706102848053
2.1579086780548096 -1.3484423160552979 -0.11109858751296997
2.158674478530884 -1.3358595371246338 -0.11083687096834183
2.159371852874756 -1.3232958316802979 -0.11057514697313309
2.1668334007263184 -1.314897894859314 -0.11066239327192307
2.1802570819854736 -1.3100618124008179 -0.11105495691299438
2.1962554454803467 -1.3066660165786743 -0.11157839745283127
2.211404800415039 -1.3026485443115234 -0.11205820739269257
3.45548415184021 -2.015227794647217 -0.17465204000473022
3.453861951828003 -1.9941370487213135 -0.17412859201431274
3.4443154335021973 -1.9686371088027954 -0.17321258783340454
3.4398293495178223 -1.9462103843688965 -0.17255829274654388
3.4343421459198 -1.9233722686767578 -0.17186039686203003
3.427847146987915 -1.9001346826553345 -0.1711188554763794
3.436105251312256 -1.885159969329834 -0.1711188554763794
3.438152313232422 -1.8668122291564941 -0.17081353068351746
3.4277842044830322 -1.8418623208999634 -0.16989752650260925
3.426967144012451 -1.8221980333328247 -0.16946132481098175
3.4242756366729736 -1.8016455173492432 -0.16893789172172546
3.4152672290802 -1.7779220342636108 -0.16810911893844604
3.4221041202545166 -1.7625458240509033 -0.16806550323963165
3.4386637210845947 -1.7521330118179321 -0.16850170493125916
3.4400312900543213 -1.7339646816253662 -0.16819636523723602
3.436835289001465 -1.713588833808899 -0.16767293214797974
3.4424877166748047 -1.6976927518844604 -0.16758570075035095
3.451658248901367 -1.6835318803787231 -0.16767293214797974
3.4562716484069824 -1.667153000831604 -0.16754207015037537
3.4572010040283203 -1.6490455865859985 -0.16723673045635223
3.4526166915893555 -1.6284048557281494 -0.16666968166828156
3.459689140319824 -1.6133244037628174 -0.16666968166828156
3.47395396232605 -1.6015596389770508 -0.16701863706111908
3.4709088802337646 -1.5818289518356323 -0.16653881967067719
3.462292432785034 -1.559693455696106 -0.16579729318618774
3.4599382877349854 -1.5405079126358032 -0.16536110639572144
3.4611403942108154 -1.5229822397232056 -0.1650993824005127
3.450345516204834 -1.5002965927124023 -0.16427062451839447
3.4467616081237793 -1.480889081954956 -0.16379080712795258
3.4651455879211426 -1.4709105491638184 -0.16435785591602325
3.4954848289489746 -1.4658221006393433 -0.1654919534921646
3.5101544857025146 -1.453997254371643 -0.16588453948497772
3.5025954246520996 -1.4329930543899536 -0.16523024439811707
3.4921414852142334 -1.4109598398208618 -0.16444510221481323
3.4843456745147705 -1.3901557922363281 -0.16379080712795258
3.4810829162597656 -1.3712776899337769 -0.16335460543632507
3.4795844554901123 -1.353178858757019 -0.16300566494464874
3.4826574325561523 -1.336909294128418 -0.16287480294704437
3.499668598175049 -1.3259482383728027 -0.16339823603630066
3.503549337387085 -1.3099656105041504 -0.16331098973751068
3.4914231300354004 -1.2880959510803223 -0.16248221695423126
3.4819893836975098 -1.267382264137268 -0.1617843061685562
3.4790239334106445 -1.2491387128829956 -0.1613917499780655
3.4750237464904785 -1.2306116819381714 -0.1609555333852768
3.470928192138672 -1.2121434211730957 -0.16051934659481049
3.471461057662964 -1.1953608989715576 -0.16030125319957733
3.4615073204040527 -1.1750640869140625 -0.15960334241390228
3.452390432357788 -1.1551941633224487 -0.15894906222820282
3.449807643890381 -1.1376162767410278 -0.1586000919342041
3.444287061691284 -1.119156837463379 -0.1581202894449234
3.441525459289551 -1.101680874824524 -0.15777133405208588
3.4386773109436035 -1.084250569343567 -0.15742237865924835
3.446237802505493 -1.0701249837875366 -0.15755324065685272
3.45565128326416 -1.0565383434295654 -0.15777133405208588
3.460228204727173 -1.0414501428604126 -0.15777133405208588
3.4589920043945312 -1.02463960647583 -0.15750961005687714
3.4432883262634277 -1.0036661624908447 -0.15659360587596893
3.4370710849761963 -0.9856033325195312 -0.15611378848552704
3.4403772354125977 -0.9703256487846375 -0.15607017278671265
3.451317548751831 -0.9571740031242371 -0.15637551248073578
3.467027425765991 -0.945259153842926 -0.15689894556999207
3.468223810195923 -0.9293466806411743 -0.1567680835723877
3.4848053455352783 -0.9175116419792175 -0.15733513236045837
3.5293989181518555 -0.9128040075302124 -0.15916715562343597
3.549809217453003 -0.9015762209892273 -0.15990868210792542
3.5643725395202637 -0.8887374401092529 -0.1603884994983673
3.552689790725708 -0.8693770170211792 -0.15969058871269226
3.5020487308502197 -0.8408061861991882 -0.1572479009628296
3.46484112739563 -0.8158999681472778 -0.155415877699852
3.453766345977783 -0.7974027395248413 -0.15476158261299133
3.450392007827759 -0.7807818055152893 -0.1544562578201294
3.4449875354766846 -0.7637730240821838 -0.15406367182731628
3.4395008087158203 -0.7468263506889343 -0.15367111563682556
3.4388177394866943 -0.7309806942939758 -0.1534966230392456
3.431215286254883 -0.713731050491333 -0.1530168205499649
3.4264650344848633 -0.6971592903137207 -0.15266786515712738
3.423595428466797 -0.6810324192047119 -0.15240614116191864
3.416727304458618 -0.6641813516616821 -0.15196995437145233
3.4156668186187744 -0.648521363735199 -0.15179547667503357
3.4125702381134033 -0.6325191259384155 -0.15153375267982483
3.402517318725586 -0.6153118014335632 -0.15096670389175415
3.3756535053253174 -0.5952548384666443 -0.14965812861919403
3.369357109069824 -0.5789973735809326 -0.14926554262638092
3.3797340393066406 -0.5656094551086426 -0.14961449801921844
0.0 -0.0 -0.0
0.0 -0.0 -0.0
0.0 -0.0 -0.0
0.0 -0.0 -0.0
3.4001669883728027 -0.4930366277694702 -0.15000708401203156
3.388435125350952 -0.47624918818473816 -0.1493964046239853
3.3756320476531982 -0.45943886041641235 -0.14874210953712463
3.369680881500244 -0.44366225600242615 -0.1483931690454483
3.372575521469116 -0.42908114194869995 -0.1484367847442627
3.379373788833618 -0.4149703085422516 -0.14865487813949585
3.3821442127227783 -0.4003385305404663 -0.14869849383831024
3.3779029846191406 -0.38489875197410583 -0.1484367847442627
3.3785572052001953 -0.3700474798679352 -0.1483931690454483
3.3801398277282715 -0.35530227422714233 -0.1483931690454483
3.3806638717651367 -0.3404502272605896 -0.1483495533466339
3.3741614818573 -0.32492998242378235 -0.1480005830526352
3.3646039962768555 -0.3091987073421478 -0.1475207805633545
3.3599495887756348 -0.29399245977401733 -0.14725905656814575
3.349252939224243 -0.2783362865447998 -0.14673562347888947
3.339479923248291 -0.26285749673843384 -0.14625580608844757
3.3176801204681396 -0.24658070504665375 -0.14525257050991058
3.2838428020477295 -0.22966277599334717 -0.14372588694095612
3.275841474533081 -0.21474403142929077 -0.1433333158493042
3.275749921798706 -0.20038746297359467 -0.1432896852493286
3.2755959033966064 -0.18603579699993134 -0.14324606955051422
3.293336868286133 -0.17263060808181763 -0.14398759603500366
3.3080294132232666 -0.15893033146858215 -0.14459827542304993
3.298710346221924 -0.144058957695961 -0.14416207373142242
3.3013041019439697 -0.12974275648593903 -0.1442493200302124
3.319810628890991 -0.11596469581127167 -0.14503446221351624
3.3232808113098145 -0.10156978666782379 -0.1451653242111206
3.309710741043091 -0.08670204877853394 -0.14455465972423553
3.2930774688720703 -0.07188925892114639 -0.1438131332397461
3.288365364074707 -0.0574326254427433 -0.14359502494335175
3.272601366043091 -0.0428745299577713 -0.1428971290588379
3.2577719688415527 -0.028463823720812798 -0.14224283397197723
3.2528700828552246 -0.014227037318050861 -0.14202472567558289
3.2489049434661865 -3.3583117328817025e-05 -0.14185024797916412
3.2468762397766113 0.014133697375655174 -0.14176301658153534
3.250779628753662 0.02833551913499832 -0.1419374942779541
3.3155577182769775 0.04336874932050705 -0.1447727531194687
3.507124900817871 0.061180826276540756 -0.15314766764640808
3.514814853668213 0.07665717601776123 -0.1534966230392456
3.479492425918579 0.09107771515846252 -0.15196995437145233
3.3452517986297607 0.10217206925153732 -0.1461249589920044
3.2459285259246826 0.11331672966480255 -0.14180663228034973
3.218449831008911 0.12641991674900055 -0.14062891900539398
3.211879014968872 0.1402004063129425 -0.14036719501018524
3.2032532691955566 0.15383011102676392 -0.14001823961734772
3.2155215740203857 0.16848503053188324 -0.1405852884054184
3.2167506217956543 0.18262700736522675 -0.14067253470420837
3.2109375 0.19635605812072754 -0.14045444130897522
3.213040590286255 0.21056047081947327 -0.1405852884054184
3.2120912075042725 0.22457794845104218 -0.1405852884054184
3.2021143436431885 0.23792491853237152 -0.14019271731376648
3.192081928253174 0.25118908286094666 -0.13980014622211456
3.191951036453247 0.26519742608070374 -0.13984376192092896
3.191758871078491 0.2792094647884369 -0.13988737761974335
3.187525749206543 0.29285919666290283 -0.13975653052330017
3.1792564392089844 0.30609437823295593 -0.13945119082927704
3.167949914932251 0.3189626634120941 -0.13901498913764954
3.161560297012329 0.33226028084754944 -0.13879689574241638
3.163059711456299 0.34637823700904846 -0.13892775774002075
3.15754771232605 0.3597240149974823 -0.138753280043602
3.144042730331421 0.3720889389514923 -0.1382298469543457
3.1404058933258057 0.3855603337287903 -0.13814260065555573
3.136711597442627 0.399007111787796 -0.13805536925792694
3.126026153564453 0.4115162491798401 -0.13766279816627502
3.116281747817993 0.4240744709968567 -0.1373138427734375
3.107476234436035 0.43669450283050537 -0.13700848817825317
3.106529951095581 0.45039263367652893 -0.13705211877822876
3.1045351028442383 0.46394309401512146 -0.13705211877822876
3.10050630569458 0.4771808087825775 -0.13696487247943878
3.0924742221832275 0.48976707458496094 -0.13670316338539124
3.0873496532440186 0.5027741193771362 -0.13657230138778687
3.0890679359436035 0.5168999433517456 -0.13674679398536682
3.0926907062530518 0.5313886404037476 -0.13700848817825317
3.0814881324768066 0.5433167219161987 -0.13661593198776245
3.0643413066864014 0.5540906190872192 -0.1359616369009018
3.0599300861358643 0.5670919418334961 -0.135874405503273
3.0564448833465576 0.5802516341209412 -0.13583077490329742
3.0587875843048096 0.5945354104042053 -0.13604888319969177
3.061063289642334 0.6088506579399109 -0.13626696169376373
3.0525035858154297 0.6210062503814697 -0.1360052525997162
3.0370497703552246 0.6316747069358826 -0.1354382038116455
3.02253794670105 0.6424278616905212 -0.13491477072238922
3.0197060108184814 0.6556100249290466 -0.13491477072238922
3.0246193408966064 0.6705094575881958 -0.13526372611522675
3.023613929748535 0.6841413974761963 -0.13535095751285553
3.0206000804901123 0.6973278522491455 -0.13535095751285553
3.0165562629699707 0.7102721333503723 -0.13530734181404114
3.009542465209961 0.7224946618080139 -0.13513286411762238
3.0073318481445312 0.735856831073761 -0.13517649471759796
3.0002148151397705 0.7480049729347229 -0.135002002120018
2.9920809268951416 0.7598592638969421 -0.13478390872478485
2.984868288040161 0.771906852722168 -0.1346094310283661
2.975674867630005 0.7833973169326782 -0.13434772193431854
2.9693334102630615 0.7955979704856873 -0.13421685993671417
2.9610142707824707 0.8072326183319092 -0.13399875164031982
2.945911169052124 0.8169410824775696 -0.13347533345222473
2.9298183917999268 0.8262619972229004 -0.13290828466415405
2.9204232692718506 0.8373856544494629 -0.1326465606689453
2.9167416095733643 0.8501204252243042 -0.1326465606689453
2.910130739212036 0.8619877696037292 -0.13251569867134094
2.898688793182373 0.8723741173744202 -0.1321667581796646
2.9005870819091797 0.8867661952972412 -0.13242846727371216
2.8985984325408936 0.9000064134597778 -0.13251569867134094
2.8879740238189697 0.9105424880981445 -0.132210373878479
2.8830223083496094 0.9228304028511047 -0.1321667581796646
2.8713667392730713 0.9329314231872559 -0.1318177878856659
2.8596785068511963 0.9429484009742737 -0.13146883249282837
2.8583791255950928 0.956368088722229 -0.13159969449043274
2.8626933097839355 0.9717211127281189 -0.13199228048324585
2.868817090988159 0.9877803921699524 -0.13247208297252655
2.8767411708831787 1.0045703649520874 -0.13303913176059723
2.862913131713867 1.0137780904769897 -0.13260294497013092
2.830254077911377 1.0161327123641968 -0.1312943696975708
2.81077241897583 1.0230053663253784 -0.13059645891189575
2.7969090938568115 1.0318020582199097 -0.13016025722026825
2.787701368331909 1.042246699333191 -0.1299421638250351
2.7775216102600098 1.0522767305374146 -0.12968043982982635
2.7626442909240723 1.0604478120803833 -0.12920062243938446
2.753335475921631 1.0706815719604492 -0.1289825439453125
2.7467782497406006 1.081952691078186 -0.12889529764652252
2.746670722961426 1.095778465270996 -0.12911339104175568
2.7474212646484375 1.1099979877471924 -0.12937510013580322
2.7407026290893555 1.1212188005447388 -0.12928786873817444
2.7320921421051025 1.131637454032898 -0.12911339104175568
2.72067928314209 1.1408432722091675 -0.12880805134773254
2.7147557735443115 1.152313232421875 -0.12876443564891815
2.711538076400757 1.1649364233016968 -0.12885168194770813
2.7064292430877686 1.1767566204071045 -0.12885168194770813
2.702183246612549 1.1889567375183105 -0.12889529764652252
2.692406177520752 1.1987041234970093 -0.12867718935012817
2.681685209274292 1.2079787254333496 -0.12841548025608063
2.676388740539551 1.2196682691574097 -0.12841548025608063
2.667412281036377 1.229661464691162 -0.12824100255966187
2.654777765274048 1.2379108667373657 -0.12789204716682434
2.6484475135803223 1.2490565776824951 -0.12784843146800995
2.649284601211548 1.2636114358901978 -0.12815377116203308
2.650944471359253 1.2786312103271484 -0.1285027116537094
2.6507279872894287 1.2928135395050049 -0.12876443564891815
2.6441657543182373 1.3039253950119019 -0.12872081995010376
2.630404233932495 1.3114384412765503 -0.12832824885845184
2.6201961040496826 1.3206547498703003 -0.1281101405620575
2.620640277862549 1.3352500200271606 -0.12841548025608063
2.619230031967163 1.3489590883255005 -0.12863357365131378
2.615091562271118 1.361297369003296 -0.12872081995010376
2.604706048965454 1.3703689575195312 -0.1285027116537094
2.599583864212036 1.3821901082992554 -0.1285463273525238
2.59704852104187 1.3954112529754639 -0.12872081995010376
2.582155466079712 1.4019627571105957 -0.12828463315963745
2.563750743865967 1.4064886569976807 -0.1276739537715912
2.5514729022979736 1.414271354675293 -0.12736861407756805
2.5400476455688477 1.422461748123169 -0.12710689008235931
2.532947540283203 1.4330393075942993 -0.12706327438354492
2.5301401615142822 1.4460605382919312 -0.12723775207996368
2.5272674560546875 1.4590846300125122 -0.12741224467754364
2.5243289470672607 1.4721109867095947 -0.1275867074728012
2.5282113552093506 1.4891958236694336 -0.1281101405620575
2.529417037963867 1.5048103332519531 -0.1285027116537094
2.518545389175415 1.5132598876953125 -0.12828463315963745
2.5059397220611572 1.5206066370010376 -0.12797929346561432
2.48991060256958 1.5257842540740967 -0.12749947607517242
2.4713358879089355 1.5292741060256958 -0.12688879668712616
2.4604034423828125 1.5373955965042114 -0.126670703291893
2.4570517539978027 1.5502489805221558 -0.12684518098831177
2.454477071762085 1.5636388063430786 -0.12706327438354492
2.4493117332458496 1.5754144191741943 -0.1271505206823349
2.4407386779785156 1.5849982500076294 -0.12706327438354492
2.430457592010498 1.5934417247772217 -0.12688879668712616
2.426814079284668 1.6062369346618652 -0.12706327438354492
2.4197826385498047 1.6168105602264404 -0.12706327438354492
2.4077353477478027 1.624001383781433 -0.12680156528949738
2.394845962524414 1.6305558681488037 -0.12649622559547424
2.392648696899414 1.6443848609924316 -0.12675794959068298
2.3985848426818848 1.6639201641082764 -0.12745586037635803
2.4035773277282715 1.6829652786254883 -0.1281101405620575
2.408449649810791 1.7020857334136963 -0.12876443564891815
2.4010000228881836 1.712578296661377 -0.12876443564891815
2.3740451335906982 1.7090296745300293 -0.12771756947040558
2.3544416427612305 1.7105637788772583 -0.12706327438354492
2.3469557762145996 1.7208205461502075 -0.12706327438354492
2.3386218547821045 1.7304503917694092 -0.12701965868473053
2.3334505558013916 1.7424312829971313 -0.1271505206823349
2.328219413757324 1.7543998956680298 -0.12728138267993927
2.3173611164093018 1.7621229887008667 -0.12710689008235931
2.305687427520752 1.769176721572876 -0.12688879668712616
2.295576333999634 1.7773853540420532 -0.12675794959068298
2.2830755710601807 1.7836942672729492 -0.12649622559547424
2.2697789669036865 1.7893095016479492 -0.1261908859014511
2.2580409049987793 1.7960866689682007 -0.12597280740737915
2.2447283267974854 1.8015446662902832 -0.12566745281219482
2.2228710651397705 1.8000051975250244 -0.12488231062889099
2.1801812648773193 1.781242847442627 -0.12291943281888962
2.1508030891418457 1.7729456424713135 -0.12169809639453888
2.1422786712646484 1.7816743850708008 -0.12165447324514389
2.1551482677459717 1.808343529701233 -0.12283220142126083
2.1777379512786865 1.8435498476028442 -0.12457697838544846
2.183347463607788 1.8647130727767944 -0.12536212801933289
2.1774609088897705 1.87617826461792 -0.12549297511577606
2.170762062072754 1.886972188949585 -0.12558022141456604
2.1707704067230225 1.9036716222763062 -0.12606003880500793
2.174415349960327 1.9237169027328491 -0.12675794959068298
2.1727092266082764 1.9391733407974243 -0.1271505206823349
2.176848888397217 1.9599992036819458 -0.12789204716682434
2.169015645980835 1.9701504707336426 -0.12793566286563873
2.138301134109497 1.9593476057052612 -0.1266270875930786
2.1135916709899902 1.9537397623062134 -0.12566745281219482
2.0992016792297363 1.957492709159851 -0.1253184974193573
2.0920960903167725 1.9680025577545166 -0.12540574371814728
2.083489179611206 1.9771122932434082 -0.12540574371814728
2.078450918197632 1.9896384477615356 -0.12562383711338043
2.0668752193450928 1.9959124326705933 -0.12544935941696167
1.9336274862289429 1.8836133480072021 -0.11785958707332611
1.7622095346450806 1.7316787242889404 -0.10787074267864227
1.7269656658172607 1.711920976638794 -0.10616958886384964
1.779527187347412 1.7794861793518066 -0.10987723618745804
1.9961155652999878 2.0135648250579834 -0.12379182130098343
2.026524782180786 2.0621588230133057 -0.1262345016002655
2.016810655593872 2.070265769958496 -0.1261908859014511
2.0105342864990234 2.081920623779297 -0.12636536359786987
2.0069580078125 2.0964467525482178 -0.1267143338918686
2.004668712615967 2.1124305725097656 -0.1271505206823349
1.9879024028778076 2.1131527423858643 -0.126670703291893
1.956859827041626 2.09842586517334 -0.1252748817205429
1.9395471811294556 2.0981407165527344 -0.12475144863128662
1.931723952293396 2.1080567836761475 -0.1248386949300766
1.9218356609344482 2.1157257556915283 -0.12479507178068161
1.9092433452606201 2.1203792095184326 -0.12457697838544846
1.8906599283218384 2.1182548999786377 -0.12396630644798279
1.8721312284469604 2.116008758544922 -0.12335562705993652
1.8595870733261108 2.1204018592834473 -0.12313754111528397
1.8483511209487915 2.1262335777282715 -0.1230066791176796
1.8357954025268555 2.1304938793182373 -0.12278857827186584
1.827130913734436 2.1392436027526855 -0.12283220142126083
1.8229434490203857 2.1532952785491943 -0.12318115681409836
1.8193104267120361 2.168116569519043 -0.12357372790575027
1.811110496520996 2.177570343017578 -0.12366096675395966
1.7996854782104492 2.1831393241882324 -0.12353010475635529
1.778132677078247 2.176271915435791 -0.12270134687423706
1.7610751390457153 2.1746926307678223 -0.12217790633440018
1.7515695095062256 2.182356119155884 -0.12217790633440018
1.715909481048584 2.157140016555786 -0.12034589052200317
1.6761738061904907 2.1261630058288574 -0.11820854246616364
1.6422773599624634 2.101966142654419 -0.11646376550197601
1.3303263187408447 1.7180967330932617 -0.09487217664718628
1.2784191370010376 1.6660258769989014 -0.09168794751167297
1.2656952142715454 1.664431095123291 -0.09129538387060165
0.0 0.0 -0.0
1.693468451499939 2.267770767211914 -0.12357372790575027
1.6942541599273682 2.2895936965942383 -0.1243588775396347
1.6807032823562622 2.292130470275879 -0.12409715354442596
1.6671627759933472 2.29459285736084 -0.12383545190095901
1.6548000574111938 2.2986018657684326 -0.12366096675395966
1.6424342393875122 2.302546977996826 -0.1234864890575409
1.628912329673767 2.3047964572906494 -0.12322477251291275
1.6165481805801392 2.3086085319519043 -0.12305029481649399
1.6070290803909302 2.3164608478546143 -0.12309391051530838
1.6008676290512085 2.329214096069336 -0.12339925765991211
1.5979989767074585 2.346912384033203 -0.12396630644798279
1.5966821908950806 2.3671140670776367 -0.12466420978307724
1.5941094160079956 2.385687828063965 -0.1252748817205429
1.5880961418151855 2.399285316467285 -0.12562383711338043
1.5770645141601562 2.4053564071655273 -0.12558022141456604
1.5524067878723145 2.390430212020874 -0.12444611638784409
1.4581890106201172 2.2669451236724854 -0.11768511682748795
1.3570277690887451 2.130047082901001 -0.11026981472969055
1.3279955387115479 2.1046862602233887 -0.1086558997631073
1.3410354852676392 2.1460442543029785 -0.1104879155755043
1.4273406267166138 2.306490898132324 -0.11842664331197739
1.4741625785827637 2.405545473098755 -0.12318115681409836
1.474536418914795 2.4298903942108154 -0.12409715354442596
1.4587745666503906 2.4277377128601074 -0.12366096675395966
1.373077630996704 2.307868242263794 -0.11724892258644104
1.2372421026229858 2.100358247756958 -0.10643130540847778
1.2013906240463257 2.059997320175171 -0.10411947965621948
1.211373209953308 2.098097085952759 -0.10577701777219772
1.324658751487732 2.3176021575927734 -0.11655101180076599
1.3917725086212158 2.4598748683929443 -0.12339925765991211
1.3863959312438965 2.4755125045776367 -0.12387906759977341
1.3566912412643433 2.447460412979126 -0.12217790633440018
0.8784316182136536 1.6011196374893188 -0.07973624020814896
0.868100106716156 1.598791480064392 -0.07943090796470642
0.8596972227096558 1.5999239683151245 -0.07930004596710205
0.852708101272583 1.603659749031067 -0.07930004596710205
0.843842089176178 1.6038286685943604 -0.07912557572126389
1.311996579170227 2.520240545272827 -0.12405353784561157
1.2909235954284668 2.506401538848877 -0.12309391051530838
1.2709037065505981 2.4942071437835693 -0.12222152203321457
1.2586596012115479 2.4970524311065674 -0.1220906674861908
1.2508728504180908 2.508779287338257 -0.12239600718021393
1.247868299484253 2.530341625213623 -0.12318115681409836
1.2473269701004028 2.557312488555908 -0.12422801554203033
1.2404972314834595 2.5717289447784424 -0.12466420978307724
1.2296944856643677 2.578019142150879 -0.12470783293247223
1.2188602685928345 2.584263563156128 -0.12475144863128662
1.208417296409607 2.5913681983947754 -0.1248386949300766
1.1987719535827637 2.600245237350464 -0.12501317262649536
1.1492983102798462 2.5218145847320557 -0.12100018560886383
0.9495275020599365 2.1077966690063477 -0.10093526542186737
0.9139079451560974 2.052595853805542 -0.09810000658035278
0.9166120886802673 2.083082675933838 -0.09936496615409851
1.0226467847824097 2.351839065551758 -0.11197097599506378
1.1484365463256836 2.6729578971862793 -0.12701965868473053
1.1441798210144043 2.6954164505004883 -0.12784843146800995
1.1215900182724 2.674586057662964 -0.1266270875930786
0.6442292332649231 1.5552465915679932 -0.0734986662864685
0.6370587944984436 1.5571181774139404 -0.07345505058765411
0.62913578748703 1.5571041107177734 -0.07332419604063034
0.6260378956794739 1.5691136121749878 -0.07376039028167725
0.6279733777046204 1.594138741493225 -0.07480724900960922
1.0519179105758667 2.7048914432525635 -0.1267143338918686
1.044402003288269 2.7206478118896484 -0.12723775207996368
1.0328751802444458 2.7261133193969727 -0.12728138267993927
1.0174716711044312 2.721236228942871 -0.12684518098831177
0.9910648465156555 2.686283588409424 -0.12501317262649536
0.9427716135978699 2.5901312828063965 -0.12034589052200317
0.9122175574302673 2.5406246185302734 -0.11785958707332611
0.8897842764854431 2.512561559677124 -0.11637653410434723
0.8679429292678833 2.485294818878174 -0.11493709683418274
0.8525367975234985 2.4758336544036865 -0.11432641744613647
0.8513602614402771 2.5079104900360107 -0.1156349927186966
0.8860597610473633 2.648029327392578 -0.12191618978977203
0.9079753160476685 2.7533910274505615 -0.12658347189426422
0.9021275639533997 2.776329517364502 -0.12745586037635803
0.8918325901031494 2.7859482765197754 -0.12771756947040558
0.8796682357788086 2.7898130416870117 -0.12771756947040558
0.0 0.0 -0.0
0.0 0.0 -0.0
0.6066803932189941 2.015674114227295 -0.09190605580806732
0.5987309813499451 2.0211756229400635 -0.0920369103550911
0.5871105194091797 2.0141775608062744 -0.09160071611404419
0.5695040822029114 1.9859892129898071 -0.09020489454269409
0.5573076009750366 1.9759550094604492 -0.08963784575462341
0.5478796362876892 1.9754797220230103 -0.08950698375701904
0.5424084663391113 1.9894181489944458 -0.09003041684627533
0.0 0.0 -0.0
0.7445515394210815 2.827838659286499 -0.1276739537715912
0.7337067127227783 2.8368637561798096 -0.12793566286563873
0.7227973937988281 2.845848321914673 -0.12819738686084747
0.7110983729362488 2.8518829345703125 -0.12832824885845184
0.6941359639167786 2.8365204334259033 -0.12749947607517242
0.6376709938049316 2.6559200286865234 -0.1192554160952568
0.5908109545707703 2.5089199542999268 -0.11253802478313446
0.5733403563499451 2.483243942260742 -0.11127305775880814
0.574186384677887 2.5373659133911133 -0.11358489096164703
0.5542435646057129 2.499857187271118 -0.11179649829864502
0.5280673503875732 2.4319581985473633 -0.1086558997631073
0.5189051032066345 2.441079616546631 -0.10896123200654984
0.5287987589836121 2.542109727859497 -0.11336679756641388
0.5790531039237976 2.845921277999878 -0.12680156528949738
0.5746217370033264 2.88859486579895 -0.1285899579524994
0.5633469820022583 2.897939443588257 -0.12889529764652252
0.5508834719657898 2.9013512134552 -0.12893891334533691
0.5360338687896729 2.891939640045166 -0.12841548025608063
0.5200324058532715 2.8755719661712646 -0.1275867074728012
0.5053985118865967 2.866007089614868 -0.12706327438354492
0.4959341883659363 2.8859081268310547 -0.12784843146800995
0.4872951805591583 2.9116930961608887 -0.12889529764652252
0.47474658489227295 2.9147775173187256 -0.12893891334533691
0.46014848351478577 2.904980421066284 -0.12841548025608063
0.22662228345870972 1.4722410440444946 -0.06503650546073914
0.22063937783241272 1.4761801958084106 -0.0651673674583435
0.2134794294834137 1.4721852540969849 -0.06494927406311035
0.20761004090309143 1.4770599603652954 -0.06512374430894852
0.20129798352718353 1.4789416790008545 -0.0651673674583435
0.3941201865673065 2.99328875541687 -0.1318177878856659
0.3805515170097351 2.991015672683716 -0.13164331018924713
0.3683496117591858 2.999588966369629 -0.13194864988327026
0.355258047580719 3.0011675357818604 -0.13194864988327026
0.3419335186481476 3.000704050064087 -0.13186141848564148
0.3288373351097107 3.0021674633026123 -0.13186141848564148
0.20314399898052216 1.932500958442688 -0.08483970910310745
0.19511045515537262 1.937345027923584 -0.08501418679952621
0.18636809289455414 1.9351946115493774 -0.08488333225250244
0.17847110331058502 1.9419585466384888 -0.08514504879713058
0.17051860690116882 1.9486901760101318 -0.08540676534175873
0.25179240107536316 3.029658794403076 -0.1327338069677353
0.14911650121212006 1.8943297863006592 -0.08296407759189606
0.1409236490726471 1.8959587812423706 -0.08300770074129105
0.1329285204410553 1.900542140007019 -0.08318217098712921
0.12960173189640045 1.976868987083435 -0.0864972472190857
0.14507220685482025 2.3713033199310303 -0.10372690111398697
0.15376006066799164 2.7070538997650146 -0.118383027613163
0.1392795443534851 2.6568171977996826 -0.11615843325853348
0.1147397831082344 2.387967586517334 -0.10438119620084763
0.10292431712150574 2.35650634765625 -0.10298537462949753
0.09691818803548813 2.465745210647583 -0.1077398881316185
0.09798350185155869 2.8046152591705322 -0.1225268617272377
0.08666100353002548 2.8349740505218506 -0.12383545190095901
0.07693332433700562 2.9361941814422607 -0.12824100255966187
0.06656384468078613 3.048368453979492 -0.1331263780593872
0.05361134931445122 3.068608045578003 -0.13399875164031982
0.040287092328071594 3.073807716369629 -0.13421685993671417
0.013013802468776703 1.488525152206421 -0.06499288976192474
0.006540695670992136 1.493562936782837 -0.0652109906077385
2.3793183572706766e-05 1.493577241897583 -0.0652109906077385
-0.006506138946861029 1.4965600967407227 -0.06534184515476227
-0.013079505413770676 1.5015125274658203 -0.06555993854999542
-0.01955254189670086 1.4954475164413452 -0.06529822945594788
-0.054036177694797516 3.098576784133911 -0.13530734181404114
-0.06753385066986084 3.0973124504089355 -0.13526372611522675
-0.08115221560001373 3.1009833812713623 -0.1354382038116455
-0.09495634585618973 3.109586715698242 -0.13583077490329742
-0.10932500660419464 3.1321070194244385 -0.1368340253829956
-0.07590344548225403 1.9326674938201904 -0.08444713801145554
-0.08437906205654144 1.9333159923553467 -0.08449075371026993
-0.09305345267057419 1.937919020652771 -0.08470885455608368
-0.1053762286901474 2.0113227367401123 -0.08793668448925018
-0.0 0.0 -0.0
-0.0 0.0 -0.0
-0.15730172395706177 2.400560140609741 -0.10503549128770828
-0.16422118246555328 2.3490233421325684 -0.10281089693307877
-0.17017580568790436 2.290498733520508 -0.10028097033500671
-0.15689297020435333 1.9939316511154175 -0.08732602000236511
-0.15773382782936096 1.8986443281173706 -0.08318217098712921
-0.16532018780708313 1.889975905418396 -0.08283321559429169
-0.17283393442630768 1.8812776803970337 -0.08248426020145416
-0.3049260079860687 3.1673245429992676 -0.13892775774002075
-0.3178423345088959 3.157017707824707 -0.13853517174720764
-0.3320319354534149 3.1595749855041504 -0.1387096494436264
-0.34527117013931274 3.1531307697296143 -0.13849155604839325
-0.35902589559555054 3.1515941619873047 -0.13849155604839325
-0.3738304674625397 3.1589269638061523 -0.13888414204120636
-0.3882189095020294 3.1622238159179688 -0.13910223543643951
-0.40188685059547424 3.15950870513916 -0.13905861973762512
-0.41462573409080505 3.1498007774353027 -0.1387096494436264
-0.42809584736824036 3.145982027053833 -0.13862241804599762
-0.44209662079811096 3.1460626125335693 -0.1387096494436264
-0.45739635825157166 3.154979944229126 -0.1391894668340683
-0.4739634394645691 3.171727418899536 -0.14001823961734772
-0.48825398087501526 3.1725914478302 -0.1401490867137909
-0.5014671683311462 3.1664838790893555 -0.13997462391853333
-0.5176872611045837 3.1790566444396973 -0.14062891900539398
-0.23247221112251282 1.3893431425094604 -0.0615033395588398
-0.5547139644622803 3.228571891784668 -0.14302797615528107
-0.5651531219482422 3.2054595947265625 -0.14211197197437286
-0.5690019130706787 3.146926164627075 -0.1396256685256958
-0.040960218757390976 0.22102250158786774 -0.009814362041652203
-0.043601181358098984 0.22967533767223358 -0.010206936858594418
-0.0455559603869915 0.2343863993883133 -0.01042503397911787
-0.047357771545648575 0.23810480535030365 -0.010599511675536633
-0.04899372160434723 0.2408328801393509 -0.01073036901652813
-0.05004407837986946 0.2406168133020401 -0.01073036901652813
-0.04901651293039322 0.2306239753961563 -0.010294175706803799
-0.04938644915819168 0.2274789959192276 -0.010163317434489727
-0.05124340206384659 0.23116283118724823 -0.01033779513090849
-0.052692484110593796 0.23288586735725403 -0.01042503397911787
-0.05235980823636055 0.22681306302547455 -0.010163317434489727
-0.0510593056678772 0.21685786545276642 -0.009727123193442822
-0.05363747105002403 0.22343315184116364 -0.010032459162175655
-0.055799081921577454 0.2280491143465042 -0.010250556282699108
-0.05461852252483368 0.21907907724380493 -0.009857981465756893
-0.05508210137486458 0.21690204739570618 -0.009770742617547512
-0.05777885764837265 0.22343026101589203 -0.010076078586280346
-0.060533590614795685 0.22993892431259155 -0.01038141455501318
-0.06308764219284058 0.23546269536018372 -0.010643131099641323
-0.06437719613313675 0.23614904284477234 -0.010686749592423439
-0.06487303972244263 0.2339404821395874 -0.010599511675536633
-0.06426617503166199 0.22788593173027039 -0.01033779513090849
-0.06443382054567337 0.22472229599952698 -0.010206936858594418
