# .PCD v0.7 - Point Cloud Data file format
VERSION 0.7
FIELDS x y z
SIZE 4 4 4
TYPE F F F
COUNT 1 1 1
WIDTH 966
HEIGHT 1
VIEWPOINT 0 0 0 1 0 0 0
POINTS 966
DATA ascii
3.249873399734497 0.014146743342280388 -0.1418938785791397
3.2517786026000977 0.028344227001070976 -0.1419811099767685
3.325547456741333 0.0434994176030159 -0.1452089548110962
3.5181126594543457 0.06137250363826752 -0.15362748503684998
3.518810272216797 0.07674431800842285 -0.15367111563682556
3.4854848384857178 0.09123457223176956 -0.15223167836666107
3.343254566192627 0.10211106389760971 -0.14603771269321442
3.249922275543213 0.11345615237951279 -0.1419811099767685
3.2164533138275146 0.12634149193763733 -0.140541672706604
3.205890417098999 0.13993899524211884 -0.1401054710149765
3.208242893218994 0.15406973659992218 -0.14023633301258087
3.216519355773926 0.16853730380535126 -0.14062891900539398
3.2167506217956543 0.18262700736522675 -0.14067253470420837
3.21492600440979 0.19659997522830963 -0.14062891900539398
3.216031312942505 0.21075646579265594 -0.14071615040302277
3.2160778045654297 0.2248566746711731 -0.14075976610183716
3.206099510192871 0.23822101950645447 -0.14036719501018524
3.197061538696289 0.25158095359802246 -0.14001823961734772
3.200911521911621 0.26594191789627075 -0.14023633301258087
3.19673490524292 0.27964475750923157 -0.1401054710149765
3.191504955291748 0.2932248115539551 -0.13993100821971893
3.183234214782715 0.3064773380756378 -0.1396256685256958
3.163973808288574 0.3185623288154602 -0.13884051144123077
3.164541006088257 0.3325735330581665 -0.13892775774002075
3.1739840507507324 0.34757453203201294 -0.13940756022930145
3.1585404872894287 0.3598370850086212 -0.13879689574241638
3.1420583724975586 0.37185409665107727 -0.13814260065555573
3.138422727584839 0.3853168487548828 -0.13805536925792694
3.1357204914093018 0.3988810181617737 -0.13801173865795135
3.1250357627868652 0.4113858640193939 -0.13761916756629944
3.1113319396972656 0.4234009087085724 -0.13709573447704315
3.1054975986480713 0.43641647696495056 -0.1369212567806244
3.100597620010376 0.44953253865242004 -0.1367904096841812
3.096630573272705 0.4627618193626404 -0.13670316338539124
3.098531723022461 0.4768768846988678 -0.13687764108181
3.0924742221832275 0.48976707458496094 -0.13670316338539124
3.0863635540008545 0.5026135444641113 -0.13652868568897247
3.094980001449585 0.5178892016410828 -0.13700848817825317
3.099583387374878 0.5325729250907898 -0.1373138427734375
3.084439754486084 0.5438371896743774 -0.13674679398536682
3.0682737827301025 0.5548016428947449 -0.13613611459732056
3.061894416809082 0.5674560070037842 -0.1359616369009018
3.05840802192688 0.5806242823600769 -0.1359180212020874
3.0578067302703857 0.5943447947502136 -0.1360052525997162
3.053224563598633 0.6072915196418762 -0.1359180212020874
3.0485877990722656 0.6202095746994019 -0.13583077490329742
3.044874429702759 0.6333022117614746 -0.13578715920448303
3.0244922637939453 0.6428432464599609 -0.135002002120018
3.0206820964813232 0.6558219790458679 -0.1349583864212036
3.02754545211792 0.6711581349372864 -0.13539458811283112
3.0304348468780518 0.6856847405433655 -0.13565629720687866
3.02449369430542 0.6982267498970032 -0.1355254352092743
3.0165562629699707 0.7102721333503723 -0.13530734181404114
3.0124566555023193 0.7231943011283875 -0.13526372611522675
3.012183904647827 0.7370440363883972 -0.13539458811283112
3.006031036376953 0.7494550943374634 -0.13526372611522675
2.994986057281494 0.7605969905853271 -0.13491477072238922
2.983900785446167 0.7716566920280457 -0.1345658153295517
2.9766409397125244 0.7836516499519348 -0.13439133763313293
2.973193407058716 0.7966321706771851 -0.13439133763313293
2.9639058113098145 0.8080209493637085 -0.1341296136379242
2.9516875743865967 0.818543016910553 -0.13373704254627228
2.9346261024475098 0.8276178240776062 -0.1331263780593872
2.923304319381714 0.8382117748260498 -0.13277742266654968
2.919619083404541 0.850959062576294 -0.13277742266654968
2.909173011779785 0.8617040514945984 -0.13247208297252655
2.900601863861084 0.8729498982429504 -0.1322539895772934
2.8967654705047607 0.885597825050354 -0.1322539895772934
2.894782066345215 0.8988214135169983 -0.13234122097492218
2.895596504211426 0.9129456877708435 -0.13255931437015533
2.8887312412261963 0.9246578216552734 -0.13242846727371216
2.8713667392730713 0.9329314231872559 -0.1318177878856659
2.8606271743774414 0.9432612061500549 -0.13151246309280396
2.8659584522247314 0.958903968334198 -0.13194864988327026
2.8636393547058105 0.9720422029495239 -0.13203589618206024
2.8650386333465576 0.9864794015884399 -0.1322976052761078
2.875797986984253 1.0042409896850586 -0.13299551606178284
2.8591461181640625 1.0124441385269165 -0.13242846727371216
2.834015130996704 1.0174829959869385 -0.13146883249282837
2.814527750015259 1.0243721008300781 -0.13077092170715332
2.7969090938568115 1.0318020582199097 -0.13016025722026825
2.7923803329467773 1.0439960956573486 -0.13016025722026825
2.7803244590759277 1.0533385276794434 -0.12981130182743073
2.7598462104797363 1.0593737363815308 -0.12906977534294128
2.753335475921631 1.0706815719604492 -0.1289825439453125
2.7504963874816895 1.083417296409607 -0.12906977534294128
2.746670722961426 1.095778465270996 -0.12911339104175568
2.746495008468628 1.1096237897872925 -0.12933148443698883
2.7416272163391113 1.1215970516204834 -0.12933148443698883
2.733938217163086 1.1324020624160767 -0.12920062243938446
2.722522020339966 1.1416159868240356 -0.12889529764652252
2.7184343338012695 1.1538746356964111 -0.12893891334533691
2.717963457107544 1.1676969528198242 -0.12915700674057007
2.711009979248047 1.178748369216919 -0.12906977534294128
2.704012155532837 1.1897615194320679 -0.1289825439453125
2.692406177520752 1.1987041234970093 -0.12867718935012817
2.684417724609375 1.2092095613479614 -0.1285463273525238
2.680025100708008 1.221325397491455 -0.1285899579524994
2.6646902561187744 1.2284066677093506 -0.1281101405620575
2.647534132003784 1.2345330715179443 -0.12754309177398682
2.6439294815063477 1.246925711631775 -0.1276303380727768
2.651087999343872 1.2644715309143066 -0.12824100255966187
2.654543876647949 1.2803672552108765 -0.12867718935012817
2.653421640396118 1.2941274642944336 -0.12889529764652252
2.647749900817871 1.3056927919387817 -0.12889529764652252
2.632192611694336 1.3123300075531006 -0.12841548025608063
2.6228725910186768 1.3220038414001465 -0.12824100255966187
2.6233105659484863 1.3366105556488037 -0.1285463273525238
2.6210062503814697 1.3498739004135132 -0.12872081995010376
2.618636131286621 1.363142490386963 -0.12889529764652252
2.6064743995666504 1.371299386024475 -0.1285899579524994
2.6022303104400635 1.3835971355438232 -0.12867718935012817
2.6014487743377686 1.3977755308151245 -0.12893891334533691
2.583033323287964 1.4024394750595093 -0.12832824885845184
2.565502643585205 1.407449722290039 -0.12776118516921997
2.557589530944824 1.4176616668701172 -0.1276739537715912
2.5444061756134033 1.4249025583267212 -0.12732499837875366
2.5320780277252197 1.4325473308563232 -0.12701965868473053
2.5301401615142822 1.4460605382919312 -0.12723775207996368
2.534188985824585 1.463080644607544 -0.12776118516921997
2.534684896469116 1.4781503677368164 -0.1281101405620575
2.533376455307007 1.4922382831573486 -0.12837186455726624
2.5319929122924805 1.5063426494598389 -0.12863357365131378
2.5253961086273193 1.517376184463501 -0.12863357365131378
2.511918544769287 1.524234652519226 -0.12828463315963745
2.4924662113189697 1.5273503065109253 -0.1276303380727768
2.4721853733062744 1.5297998189926147 -0.12693241238594055
2.4612507820129395 1.537925124168396 -0.1267143338918686
2.4587416648864746 1.5513150691986084 -0.12693241238594055
2.456162452697754 1.564712405204773 -0.1271505206823349
2.4484713077545166 1.574873924255371 -0.12710689008235931
2.4424145221710205 1.5860865116119385 -0.1271505206823349
2.4363059997558594 1.5972760915756226 -0.1271941363811493
2.425981044769287 1.6056855916976929 -0.12701965868473053
2.413137197494507 1.6123703718185425 -0.1267143338918686
2.402765989303589 1.6206494569778442 -0.12653984129428864
2.3964974880218506 1.6316803693771362 -0.12658347189426422
2.3975887298583984 1.6477800607681274 -0.12701965868473053
2.401047468185425 1.665628433227539 -0.1275867074728012
2.405214548110962 1.684111475944519 -0.12819738686084747
2.410081386566162 1.7032389640808105 -0.12885168194770813
2.400186777114868 1.7119981050491333 -0.12872081995010376
2.3699910640716553 1.706111192703247 -0.12749947607517242
2.3512086868286133 1.7082148790359497 -0.12688879668712616
2.3461501598358154 1.7202298641204834 -0.12701965868473053
2.336212635040283 1.7286676168441772 -0.12688879668712616
2.3302485942840576 1.7400403022766113 -0.12697604298591614
2.328219413757324 1.7543998956680298 -0.12728138267993927
2.3189516067504883 1.7633323669433594 -0.1271941363811493
2.3064799308776855 1.7697848081588745 -0.12693241238594055
2.2932064533233643 1.7755504846572876 -0.1266270875930786
2.279139280319214 1.7806190252304077 -0.1262781322002411
2.268209934234619 1.7880724668502808 -0.12610365450382233
2.257258892059326 1.7954646348953247 -0.12592917680740356
2.2423908710479736 1.799668788909912 -0.12553659081459045
2.2205417156219482 1.798119068145752 -0.12475144863128662
2.1794075965881348 1.7806107997894287 -0.12287581712007523
2.147719383239746 1.7704036235809326 -0.12152361124753952
2.139974355697632 1.7797578573226929 -0.12152361124753952
2.1559135913848877 1.808985710144043 -0.12287581712007523
2.183837890625 1.848713755607605 -0.12492592632770538
2.187145948410034 1.8679572343826294 -0.12558022141456604
2.175947427749634 1.8748741149902344 -0.12540574371814728
2.167746067047119 1.8843505382537842 -0.12540574371814728
2.1692681312561035 1.9023542404174805 -0.12597280740737915
2.1729187965393066 1.9223928451538086 -0.126670703291893
2.170473098754883 1.9371776580810547 -0.12701965868473053
2.1820461750030518 1.9646787643432617 -0.12819738686084747
2.174192428588867 1.9748525619506836 -0.12824100255966187
2.135354995727539 1.9566478729248047 -0.12645260989665985
2.1121246814727783 1.9523835182189941 -0.12558022141456604
2.1021242141723633 1.960218071937561 -0.12549297511577606
2.0942788124084473 1.9700560569763184 -0.12553659081459045
2.081315040588379 1.9750491380691528 -0.1252748817205429
2.07556414604187 1.986875057220459 -0.12544935941696167
2.0647192001342773 1.9938304424285889 -0.1253184974193573
1.9321962594985962 1.8822190761566162 -0.11777234822511673
1.7607845067977905 1.7302783727645874 -0.10778351128101349
1.7312229871749878 1.7161412239074707 -0.10643130540847778
1.7901239395141602 1.790082573890686 -0.1105315312743187
2.001742362976074 2.0192408561706543 -0.12414078414440155
2.025824546813965 2.061446189880371 -0.1261908859014511
2.016810655593872 2.070265769958496 -0.1261908859014511
2.0126161575317383 2.0840766429901123 -0.12649622559547424
2.00903058052063 2.098611831665039 -0.12684518098831177
2.0053563117980957 2.1131551265716553 -0.1271941363811493
1.9865334033966064 2.1116976737976074 -0.12658347189426422
1.9575411081314087 2.099156379699707 -0.1253184974193573
1.9415817260742188 2.100341558456421 -0.12488231062889099
1.9337488412857056 2.1102664470672607 -0.12496955692768097
1.9251943826675415 2.1194233894348145 -0.12501317262649536
1.909911870956421 2.121121406555176 -0.12462059408426285
1.889994502067566 2.117509365081787 -0.1239226832985878
1.8721312284469604 2.116008758544922 -0.12335562705993652
1.8582695722579956 2.1188995838165283 -0.12305029481649399
1.846384882926941 2.123971462249756 -0.12287581712007523
1.83449125289917 2.1289803981781006 -0.12270134687423706
1.829726219177246 2.142282247543335 -0.1230066791176796
1.8229434490203857 2.1532952785491943 -0.12318115681409836
1.816741704940796 2.165055513381958 -0.12339925765991211
1.813027024269104 2.1798746585845947 -0.12379182130098343
1.7984145879745483 2.1815977096557617 -0.1234428733587265
1.7775002717971802 2.1754980087280273 -0.12265771627426147
1.7604464292526245 2.1739163398742676 -0.12213429063558578
1.7509442567825317 2.18157696723938 -0.12213429063558578
1.715287685394287 2.156358242034912 -0.12030227482318878
1.6736997365951538 2.1230247020721436 -0.11803406476974487
1.6336661577224731 2.090944528579712 -0.11585310101509094
1.310142159461975 1.6920291185379028 -0.09343273192644119
1.277202844619751 1.6644407510757446 -0.09160071611404419
1.2650903463363647 1.6636357307434082 -0.09125176072120667
0.0 0.0 -0.0
1.693468451499939 2.267770767211914 -0.12357372790575027
1.6936599016189575 2.288790702819824 -0.12431526184082031
1.6783403158187866 2.288907766342163 -0.1239226832985878
1.6636393070220947 2.289743185043335 -0.12357372790575027
1.6524652242660522 2.295358657836914 -0.1234864890575409
1.6412739753723145 2.3009204864501953 -0.12339925765991211
1.630642056465149 2.307244062423706 -0.12335562705993652
1.6199864149093628 2.313518762588501 -0.12331201136112213
1.6087374687194824 2.318923234939575 -0.12322477251291275
1.5997358560562134 2.3275673389434814 -0.12331201136112213
1.5946253538131714 2.3419575691223145 -0.12370458990335464
1.5938888788223267 2.3629729747772217 -0.12444611638784409
1.595774531364441 2.3881800174713135 -0.12540574371814728
1.590301752090454 2.4026176929473877 -0.1257983148097992
1.5787078142166138 2.407862901687622 -0.1257110834121704
1.5529508590698242 2.391268014907837 -0.12448973208665848
1.4517031908035278 2.256862163543701 -0.11716167628765106
1.3581013679504395 2.13173246383667 -0.11035706102848053
1.3295949697494507 2.1072208881378174 -0.10878676176071167
1.3420941829681396 2.1477386951446533 -0.11057514697313309
1.435752272605896 2.3200833797454834 -0.11912455409765244
1.4772945642471313 2.410656452178955 -0.1234428733587265
1.4734998941421509 2.428182363510132 -0.12400992214679718
1.4546581506729126 2.420886993408203 -0.12331201136112213
1.3649044036865234 2.294130802154541 -0.11655101180076599
1.2321714162826538 2.091750144958496 -0.10599511116743088
1.199377417564392 2.0565452575683594 -0.10394500195980072
1.2133713960647583 2.101557970046997 -0.10595149546861649
1.331599235534668 2.329745292663574 -0.11716167628765106
1.392264485359192 2.4607443809509277 -0.1234428733587265
1.39030122756958 2.48248553276062 -0.12422801554203033
1.3566912412643433 2.447460412979126 -0.12217790633440018
0.8784316182136536 1.6011196374893188 -0.07973624020814896
0.8676233887672424 1.5979135036468506 -0.07938728481531143
0.8582785725593567 1.5972837209701538 -0.07916919142007828
0.854584276676178 1.6071882247924805 -0.07947453111410141
0.8475635051727295 1.6109017133712769 -0.07947453111410141
1.3092286586761475 2.514923572540283 -0.12379182130098343
1.291838526725769 2.5081779956817627 -0.12318115681409836
1.2704501152038574 2.493317127227783 -0.12217790633440018
1.2573106288909912 2.4943761825561523 -0.12195981293916702
1.2517644166946411 2.5105671882629395 -0.12248323857784271
1.2496358156204224 2.5339255332946777 -0.12335562705993652
1.247765064239502 2.558210611343384 -0.12427164614200592
1.2396292686462402 2.569929361343384 -0.12457697838544846
1.229264259338379 2.5771172046661377 -0.12466420978307724
1.2192864418029785 2.5851669311523438 -0.12479507178068161
1.2071505784988403 2.588651657104492 -0.12470783293247223
1.1970988512039185 2.59661602973938 -0.1248386949300766
1.138940453529358 2.499087333679199 -0.11990969628095627
0.947886049747467 2.1041529178619385 -0.1007607951760292
0.9135016202926636 2.0516834259033203 -0.09805639088153839
0.9162096977233887 2.0821683406829834 -0.09932135045528412
1.0461512804031372 2.405893564224243 -0.11454451829195023
1.1508028507232666 2.6784653663635254 -0.12728138267993927
1.147693157196045 2.70369291305542 -0.12824100255966187
1.1208173036575317 2.672743320465088 -0.12653984129428864
0.6449938416481018 1.557092547416687 -0.07358590513467789
0.6370587944984436 1.5571181774139404 -0.07345505058765411
0.62913578748703 1.5571041107177734 -0.07332419604063034
0.6256676912307739 1.568185567855835 -0.07371676713228226
0.629804253578186 1.598786473274231 -0.07502534985542297
1.055901050567627 2.7151336669921875 -0.1271941363811493
1.0429699420928955 2.716917037963867 -0.12706327438354492
1.0289814472198486 2.715836524963379 -0.12680156528949738
1.0164220333099365 2.71842885017395 -0.1267143338918686
0.9907190799713135 2.6853463649749756 -0.12496955692768097
0.9437967538833618 2.5929477214813232 -0.12047675251960754
0.9125551581382751 2.54156494140625 -0.1179032027721405
0.8887837529182434 2.5097362995147705 -0.11624567210674286
0.8666253089904785 2.4815220832824707 -0.11476261168718338
0.8502599000930786 2.469221353530884 -0.11402107775211334
0.8513602614402771 2.5079104900360107 -0.1156349927186966
0.8901809453964233 2.6603457927703857 -0.12248323857784271
0.9126684665679932 2.767622709274292 -0.12723775207996368
0.903980016708374 2.7820303440093994 -0.12771756947040558
0.8924417495727539 2.787851095199585 -0.12780480086803436
0.8811703324317932 2.79457688331604 -0.12793566286563873
0.0 0.0 -0.0
0.0 0.0 -0.0
0.6075442433357239 2.0185439586639404 -0.0920369103550911
0.5987309813499451 2.0211756229400635 -0.0920369103550911
0.5865513682365417 2.0122592449188232 -0.09151347726583481
0.568953275680542 1.9840683937072754 -0.09011765569448471
0.5562228560447693 1.9721089601516724 -0.08946336805820465
0.546277642250061 1.9697034358978271 -0.0892452672123909
0.0 0.0 -0.0
0.0 0.0 -0.0
0.7455690503120422 2.8317031860351562 -0.12784843146800995
0.7344571948051453 2.8397655487060547 -0.1280665248632431
0.722305417060852 2.8439111709594727 -0.1281101405620575
0.7108566761016846 2.8509137630462646 -0.12828463315963745
0.6955608129501343 2.8423430919647217 -0.12776118516921997
0.638603925704956 2.6598057746887207 -0.11942988634109497
0.5908109545707703 2.5089199542999268 -0.11253802478313446
0.5742393136024475 2.48713755607605 -0.1114475354552269
0.5752889513969421 2.5422379970550537 -0.11380299180746078
0.5538110136985779 2.49790620803833 -0.11170925199985504
0.5276433825492859 2.4300055503845215 -0.10856866091489792
0.5189051032066345 2.441079616546631 -0.10896123200654984
0.5285952687263489 2.5411314964294434 -0.1133231669664383
0.5794515013694763 2.847879409790039 -0.12688879668712616
0.5759861469268799 2.895453691482544 -0.12889529764652252
0.5650627613067627 2.9067656993865967 -0.12928786873817444
0.5518152713775635 2.906259059906006 -0.12915700674057007
0.5371263027191162 2.8978333473205566 -0.12867718935012817
0.5203879475593567 2.877537965774536 -0.1276739537715912
0.5059190392494202 2.8689587116241455 -0.1271941363811493
0.4961033761501312 2.886892795562744 -0.12789204716682434
0.4869653582572937 2.909722328186035 -0.12880805134773254
0.47506779432296753 2.9167497158050537 -0.1290261596441269
0.46014848351478577 2.904980421066284 -0.12841548025608063
0.22707827389240265 1.4752033948898315 -0.0651673674583435
0.22034400701522827 1.4742040634155273 -0.06508012861013412
0.21304930746555328 1.4692190885543823 -0.06481841206550598
0.20761004090309143 1.4770599603652954 -0.06512374430894852
0.20048955082893372 1.4730021953582764 -0.06490565091371536
0.39425063133239746 2.994279384613037 -0.13186141848564148
0.38029929995536804 2.9890334606170654 -0.13155607879161835
0.3674972355365753 2.992647647857666 -0.13164331018924713
0.35490572452545166 2.9981911182403564 -0.1318177878856659
0.3415941596031189 2.9977262020111084 -0.1317305564880371
0.32861974835395813 3.000180959701538 -0.1317741721868515
0.20272623002529144 1.928526759147644 -0.08466523140668869
0.19491024315357208 1.9353570938110352 -0.08492695540189743
0.1864638775587082 1.93618905544281 -0.08492695540189743
0.17764823138713837 1.9330047369003296 -0.08475247025489807
0.16999608278274536 1.942718744277954 -0.08514504879713058
0.2518751323223114 3.0306544303894043 -0.13277742266654968
0.14880290627479553 1.8903459310531616 -0.0827895998954773
0.14084959030151367 1.8949624300003052 -0.08296407759189606
0.13306793570518494 1.902535319328308 -0.08326940983533859
0.13005922734737396 1.9838473796844482 -0.08680258691310883
0.14519423246383667 2.373297691345215 -0.10381414741277695
0.15455320477485657 2.721018075942993 -0.11899369210004807
0.13948874175548553 2.6608078479766846 -0.11633290350437164
0.11450003832578659 2.3829779624938965 -0.10416309535503387
0.10309869050979614 2.3604986667633057 -0.10315985232591629
0.09762447327375412 2.4837143421173096 -0.10852503776550293
0.09815792739391327 2.809607744216919 -0.12274496257305145
0.08669152855873108 2.835972547531128 -0.12387906759977341
0.07695949822664261 2.9371931552886963 -0.12828463315963745
0.06656384468078613 3.048368453979492 -0.1331263780593872
0.05378586798906326 3.078597068786621 -0.13443496823310852
0.04039183631539345 3.081799268722534 -0.1345658153295517
0.013074941001832485 1.4955182075500488 -0.06529822945594788
0.006553820334374905 1.496559977531433 -0.06534184515476227
2.3761351258144714e-05 1.4915790557861328 -0.06512374430894852
-0.006510482169687748 1.4975591897964478 -0.06538546085357666
-0.013088208623230457 1.5025116205215454 -0.06560356169939041
-0.019670091569423676 1.504438042640686 -0.06569080054759979
-0.053914234042167664 3.0915842056274414 -0.135002002120018
-0.06753385066986084 3.0973124504089355 -0.13526372611522675
-0.08123061805963516 3.1039793491363525 -0.13556905090808868
-0.09498684853315353 3.1105854511260986 -0.135874405503273
-0.10932500660419464 3.1321070194244385 -0.1368340253829956
-0.075825035572052 1.930670976638794 -0.08435989916324615
-0.08437906205654144 1.9333159923553467 -0.08449075371026993
-0.09305345267057419 1.937919020652771 -0.08470885455608368
-0.1053762286901474 2.0113227367401123 -0.08793668448925018
-0.13713999092578888 2.4158055782318115 -0.10564616322517395
-0.0 0.0 -0.0
-0.15704041719436646 2.3965723514556885 -0.10486100614070892
-0.16443020105361938 2.352013349533081 -0.10294175893068314
-0.17032384872436523 2.2924914360046387 -0.10036821663379669
-0.15603092312812805 1.982975959777832 -0.08684620261192322
-0.15732024610042572 1.89366614818573 -0.08296407759189606
-0.16532018780708313 1.889975905418396 -0.08283321559429169
-0.1727425456047058 1.8802828788757324 -0.08244064450263977
-0.3047345280647278 3.1653356552124023 -0.13884051144123077
-0.318042516708374 3.159005880355835 -0.13862241804599762
-0.33182311058044434 3.157588005065918 -0.13862241804599762
-0.34581491351127625 3.1580963134765625 -0.1387096494436264
-0.3594782054424286 3.155564785003662 -0.138666033744812
-0.37371304631233215 3.1579346656799316 -0.13884051144123077
-0.38761019706726074 3.1572656631469727 -0.13888414204120636
-0.40062618255615234 3.1495978832244873 -0.13862241804599762
-0.4129306972026825 3.1369242668151855 -0.13814260065555573
-0.42728760838508606 3.140042304992676 -0.13836070895195007
-0.44265276193618774 3.150020122528076 -0.13888414204120636
-0.45725300908088684 3.1539909839630127 -0.1391458511352539
-0.47307756543159485 3.165799140930176 -0.13975653052330017
-0.48749420046806335 3.167654514312744 -0.13993100821971893
-0.5013109445571899 3.165497303009033 -0.13993100821971893
-0.5188112854957581 3.1859591007232666 -0.14093424379825592
-0.5374889373779297 3.212240219116211 -0.14219921827316284
-0.5530222654342651 3.2187256813049316 -0.14259177446365356
-0.5641123056411743 3.199556350708008 -0.14185024797916412
-0.5681130886077881 3.1420106887817383 -0.13940756022930145
-0.041870445013046265 0.22593410313129425 -0.010032459162175655
-0.04416017234325409 0.23261989653110504 -0.01033779513090849
-0.04669962078332901 0.24027055501937866 -0.010686749592423439
-0.0463833287358284 0.23320551216602325 -0.01038141455501318
-0.04799791797995567 0.2359379082918167 -0.010512272827327251
-0.04780633747577667 0.22985753417015076 -0.010250556282699108
-0.04756263270974159 0.2237834334373474 -0.00998884066939354
-0.0506582036614418 0.23333682119846344 -0.01042503397911787
-0.05124340206384659 0.23116283118724823 -0.01033779513090849
-0.05313342437148094 0.2348347008228302 -0.010512272827327251
-0.054157570004463196 0.23460063338279724 -0.010512272827327251
-0.050601374357938766 0.21491296589374542 -0.009639885276556015
-0.05107220634818077 0.2127472311258316 -0.009552646428346634
-0.05484931170940399 0.22416742146015167 -0.010076078586280346
-0.05606856942176819 0.22489534318447113 -0.010119698010385036
-0.056557510048151016 0.22271192073822021 -0.010032459162175655
-0.056278105825185776 0.2176268845796585 -0.009814362041652203
-0.05875319615006447 0.2231760323047638 -0.010076078586280346
-0.061794865876436234 0.23063763976097107 -0.01042503397911787
-0.06280061602592468 0.2303658127784729 -0.01042503397911787
-0.063004270195961 0.227201446890831 -0.010294175706803799
-0.06291034817695618 0.22307820618152618 -0.010119698010385036
-0.06498453766107559 0.22664299607276917 -0.010294175706803799
-0.06541373580694199 0.22443901002407074 -0.010206936858594418
-0.0658249482512474 0.22223563492298126 -0.010119698010385036
-0.06736981123685837 0.22385963797569275 -0.010206936858594418
-0.06922215968370438 0.226429745554924 -0.01033779513090849
-0.07139445096254349 0.22994202375411987 -0.010512272827327251
-0.07239707559347153 0.229628324508667 -0.010512272827327251
-0.073702871799469 0.23026174306869507 -0.010555892251431942
-0.07223722338676453 0.22233670949935913 -0.010206936858594418
-0.07195524871349335 0.2182241827249527 -0.010032459162175655
-0.07195578515529633 0.2150658667087555 -0.009901601821184158
-0.07257238030433655 0.21380382776260376 -0.009857981465756893
-0.07513078302145004 0.21820826828479767 -0.010076078586280346
-0.07904641330242157 0.22636713087558746 -0.010468653403222561
-0.07603169977664948 0.21471907198429108 -0.009945221245288849
-0.07257933169603348 0.20216156542301178 -0.009378168731927872
-0.07311905175447464 0.20090414583683014 -0.009334549307823181
-0.07295764982700348 0.19777128100395203 -0.00920369103550911
-0.07696860283613205 0.20587314665317535 -0.009596265852451324
-0.08105158805847168 0.21394361555576324 -0.00998884066939354
-0.08270033448934555 0.21545332670211792 -0.010076078586280346
-0.0 0.0 -0.0
-0.0 0.0 -0.0
-0.0 0.0 -0.0
-0.0 0.0 -0.0
-0.0 0.0 -0.0
-0.0 0.0 -0.0
-0.0 0.0 -0.0
-0.0 0.0 -0.0
-0.0 0.0 -0.0
-0.0 0.0 -0.0
-0.0 0.0 -0.0
-0.0 0.0 -0.0
-0.0 0.0 -0.0
-0.0 0.0 -0.0
-0.0 0.0 -0.0
-0.0 0.0 -0.0
-0.0 0.0 -0.0
-0.0 0.0 -0.0
-0.0 0.0 -0.0
-0.0 0.0 -0.0
-0.0 0.0 -0.0
-0.0 0.0 -0.0
-0.0 0.0 -0.0
-0.0 0.0 -0.0
-0.0 0.0 -0.0
-1.1001832485198975 2.11352801322937 -0.1040322482585907
-0.0 0.0 -0.0
-0.0 0.0 -0.0
-0.0 0.0 -0.0
-0.0 0.0 -0.0
-0.0 0.0 -0.0
-0.0 0.0 -0.0
-0.0 0.0 -0.0
-0.0 0.0 -0.0
-0.0 0.0 -0.0
-0.0 0.0 -0.0
-0.0 0.0 -0.0
-0.0 0.0 -0.0
-0.0 0.0 -0.0
-0.0 0.0 -0.0
-1.5174751281738281 2.500828266143799 -0.12771756947040558
-0.0 0.0 -0.0
-0.0 0.0 -0.0
-0.0 0.0 -0.0
-1.0736445188522339 1.701695203781128 -0.0878494530916214
-1.0767650604248047 1.690253496170044 -0.08750049024820328
-1.0857511758804321 1.68805992603302 -0.08763135224580765
-1.098547339439392 1.6916851997375488 -0.08806754648685455
-1.6136876344680786 2.4613852500915527 -0.1285027116537094
-1.680102825164795 2.538464069366455 -0.13290828466415405
-1.9037376642227173 2.8492627143859863 -0.14961449801921844
-1.948553204536438 2.8889684677124023 -0.1521444320678711
-1.926842451095581 2.830063819885254 -0.14948363602161407
-1.9787821769714355 2.8792645931243896 -0.152537003159523
-2.098950147628784 3.0257484912872314 -0.16078107059001923
-2.1488053798675537 3.0689380168914795 -0.16357271373271942
-2.1621756553649902 3.05953311920166 -0.16357271373271942
-2.1627416610717773 3.0321760177612305 -0.16261307895183563
-0.0 0.0 -0.0
-1.1321412324905396 1.5583221912384033 -0.08409818261861801
-1.1383391618728638 1.55256187915802 -0.08405455946922302
-1.1534219980239868 1.558823585510254 -0.08466523140668869
-1.5080969333648682 2.0196685791015625 -0.1100517138838768
-1.5289195775985718 2.029026985168457 -0.11092410981655121
-0.0 0.0 -0.0
-1.8354467153549194 2.3920974731445312 -0.13164331018924713
-1.8336342573165894 2.368267059326172 -0.13077092170715332
-1.698796033859253 2.174447536468506 -0.12047675251960754
-1.5827142000198364 2.007744312286377 -0.11162201315164566
-1.5839966535568237 1.9914369583129883 -0.11109858751296997
-0.0 0.0 -0.0
-2.2884905338287354 2.8261640071868896 -0.15877456963062286
-0.0 0.0 -0.0
-1.9267075061798096 2.3373770713806152 -0.1322539895772934
-0.0 0.0 -0.0
-0.0 0.0 -0.0
-0.1426541656255722 0.16851666569709778 -0.009639885276556015
-0.16350135207176208 0.19144316017627716 -0.010992085561156273
-0.1969412863254547 0.22857078909873962 -0.013173055835068226
-0.21366681158542633 0.24580541253089905 -0.01421992015093565
-0.22198304533958435 0.25313329696655273 -0.014699733816087246
-0.22440937161445618 0.25365883111953735 -0.014786972664296627
-0.22684448957443237 0.25416797399520874 -0.014874211512506008
-0.231293722987175 0.2568880021572113 -0.015092308633029461
-0.23375581204891205 0.2573554217815399 -0.015179547481238842
-0.23487649857997894 0.25633302330970764 -0.015179547481238842
-0.23260203003883362 0.2516375780105591 -0.01496145036071539
-0.23097243905067444 0.2476975917816162 -0.014786972664296627
-0.2327355295419693 0.24741511046886444 -0.014830592088401318
-0.23450055718421936 0.24712197482585907 -0.014874211512506008
-0.23350407183170319 0.2439313679933548 -0.014743354171514511
-0.23456619679927826 0.2429102063179016 -0.014743354171514511
-0.23353247344493866 0.23973748087882996 -0.014612494967877865
-0.23527655005455017 0.23942884802818298 -0.01465611532330513
-0.23702232539653778 0.23910950124263763 -0.014699733816087246
-0.2373569756746292 0.23736658692359924 -0.01465611532330513
-0.2390998899936676 0.23703202605247498 -0.014699733816087246
-0.23941931128501892 0.23528625071048737 -0.01465611532330513
-0.23901242017745972 0.23284505307674408 -0.014568876475095749
-0.24074473977088928 0.23249396681785583 -0.014612494967877865
-0.23814858496189117 0.22798697650432587 -0.014394397847354412
-0.2391410917043686 0.226945698261261 -0.014394397847354412
-0.2379460632801056 0.2238464653491974 -0.014263540506362915
-0.2396511286497116 0.2234874665737152 -0.014307158999145031
-0.24355843663215637 0.22515234351158142 -0.014481637626886368
-0.24085572361946106 0.22071269154548645 -0.014263540506362915
-0.20938676595687866 -0.1918676197528839 0.0
-0.20340734720230103 -0.18802781403064728 0.0
-0.20477904379367828 -0.19095952808856964 0.0
-0.20685738325119019 -0.1945919543504715 0.0
-0.20383022725582123 -0.19342762231826782 0.0
-0.2058737725019455 -0.19708120822906494 0.0
-0.20213451981544495 -0.19519898295402527 0.0
-0.19698306918144226 -0.1918923407793045 0.0
-0.19400416314601898 -0.19064728915691376 0.0
-0.19388064742088318 -0.19219598174095154 0.0
-0.19091887772083282 -0.19091878831386566 0.0
-0.1900840401649475 -0.19175000488758087 0.0
-0.1892455667257309 -0.1925775706768036 0.0
-0.18491454422473907 -0.18981996178627014 0.0
-0.1813059002161026 -0.18774762749671936 0.0
-0.17495287954807281 -0.18275803327560425 0.0
-0.17071200907230377 -0.17989277839660645 0.0
-0.1678699105978012 -0.1784508228302002 0.0
-0.16777168214321136 -0.17991293966770172 0.0
-0.16562747955322266 -0.17917463183403015 0.0
-0.1648441106081009 -0.17989559471607208 0.0
-0.16472996771335602 -0.181353360414505 0.0
-0.16192971169948578 -0.17984096705913544 0.0
-0.16047759354114532 -0.17979975044727325 0.0
-0.15836630761623383 -0.17900033295154572 0.0
-0.15692441165447235 -0.17893777787685394 0.0
-0.15679822862148285 -0.18037550151348114 0.0
-0.15470419824123383 -0.17954280972480774 0.0
-0.15391932427883148 -0.18021611869335175 0.0
-0.1544237732887268 -0.18241246044635773 0.0
-0.15298359096050262 -0.18231846392154694 0.0
-0.15218663215637207 -0.18298424780368805 0.0
-0.15075069665908813 -0.1828749179840088 0.0
-0.15058402717113495 -0.1843053251504898 0.0
-0.14789044857025146 -0.18262918293476105 0.0
-0.14896994829177856 -0.18561238050460815 0.0
-0.14940369129180908 -0.18782582879066467 0.0
-0.14734452962875366 -0.18690529465675354 0.0
-0.14899025857448578 -0.19069847464561462 0.0
-0.14938120543956757 -0.19292812049388885 0.0
-0.1461029350757599 -0.19040466845035553 0.0
-0.14466546475887299 -0.19024433195590973 0.0
-0.1468430757522583 -0.19486692547798157 0.0
-0.14718806743621826 -0.19710828363895416 0.0
-0.14573179185390472 -0.19694477319717407 0.0
-0.1460537165403366 -0.19919165968894958 0.0
-0.1475343406200409 -0.20306311547756195 0.0
-0.14372564852237701 -0.19964703917503357 0.0
-0.13878823816776276 -0.19457344710826874 0.0
-0.13505221903324127 -0.19109396636486053 0.0
-0.13134925067424774 -0.18758566677570343 0.0
-0.1333794891834259 -0.19226522743701935 0.0
-0.1376369744539261 -0.20026250183582306 0.0
-0.13563625514507294 -0.19920796155929565 0.0
-0.1314105987548828 -0.19482366740703583 0.0
-0.12889255583286285 -0.19290077686309814 0.0
-0.12528996169567108 -0.18929192423820496 0.0
-0.12775260210037231 -0.1948544979095459 0.0
-0.12635654211044312 -0.194571390748024 0.0
-0.12496539205312729 -0.19427983462810516 0.0
-0.12411650270223618 -0.1948232501745224 0.0
-0.12486609816551208 -0.19790013134479523 0.0
-0.1250612586736679 -0.20013917982578278 0.0
-0.12313437461853027 -0.19898223876953125 0.0
-0.12487748265266418 -0.20378081500530243 0.0
-0.12398713827133179 -0.20432373881340027 0.0
-0.12360947579145432 -0.2057199627161026 0.0
-0.12015421688556671 -0.20196032524108887 0.0
-0.12130201607942581 -0.20592917501926422 0.0
-0.11989855766296387 -0.20559264719486237 0.0
-0.11900036036968231 -0.20611384510993958 0.0
-0.11958854645490646 -0.20923571288585663 0.0
-0.11227293312549591 -0.19844090938568115 0.0
-0.1118946298956871 -0.19980140030384064 0.0
-0.11683950573205948 -0.21078313887119293 0.0
-0.11976661533117294 -0.21830475330352783 0.0
-0.11690430343151093 -0.2153099775314331 0.0
-0.11359712481498718 -0.21141356229782104 0.0
-0.11173463612794876 -0.21014131605625153 0.0
-0.11314475536346436 -0.2150517851114273 0.0
-0.11359059065580368 -0.21820445358753204 0.0
-0.1108059212565422 -0.21514193713665009 0.0
-0.10986614227294922 -0.21562336385250092 0.0
-0.10802406817674637 -0.21431472897529602 0.0
-0.10351832956075668 -0.20762456953525543 0.0
-0.10393828898668289 -0.21076488494873047 0.0
-0.10477116703987122 -0.2148115634918213 0.0
-0.10252954065799713 -0.21256457269191742 0.0
-0.10246211290359497 -0.21481508016586304 0.0
-0.10109727084636688 -0.21435566246509552 0.0
-0.10016101598739624 -0.21479474008083344 0.0
-0.09880418330430984 -0.2143215835094452 0.0
-0.09455053508281708 -0.20747096836566925 0.0
-0.09364438056945801 -0.20788154006004333 0.0
-0.09354991465806961 -0.2101152390241623 0.0
-0.09303498268127441 -0.21143673360347748 0.0
-0.09490279853343964 -0.21826007962226868 0.0
-0.09473905712366104 -0.22050967812538147 0.0
-0.09377600997686386 -0.22092095017433167 0.0
-0.09203774482011795 -0.2194836139678955 0.0
-0.08878308534622192 -0.21433983743190765 0.0
-0.0836818590760231 -0.20454426109790802 0.0
-0.08503623306751251 -0.2104705274105072 0.0
-0.08448763936758041 -0.21176837384700775 0.0
-0.08282981812953949 -0.21027417480945587 0.0
-0.08408618718385696 -0.21622560918331146 0.0
-0.08421704918146133 -0.21939119696617126 0.0
-0.08432185649871826 -0.22256195545196533 0.0
-0.0812486931681633 -0.21730774641036987 0.0
-0.07926139235496521 -0.21484561264514923 0.0
-0.0800333172082901 -0.2198878675699234 0.0
-0.07873520255088806 -0.21929380297660828 0.0
-0.0797804668545723 -0.22529110312461853 0.0
-0.08110454678535461 -0.23224568367004395 0.0
-0.07813699543476105 -0.22692424058914185 0.0
-0.07714612036943436 -0.22726301848888397 0.0
-0.07647108286619186 -0.22854579985141754 0.0
-0.07422047853469849 -0.2250784933567047 0.0
-0.07323768734931946 -0.2254001945257187 0.0
-0.0722535103559494 -0.22571760416030884 0.0
-0.07217007130384445 -0.22889186441898346 0.0
-0.07146721333265305 -0.23015961050987244 0.0
-0.0695851519703865 -0.2276003211736679 0.0
-0.06974420696496964 -0.2317320704460144 0.0
-0.06873242557048798 -0.23203417658805847 0.0
-0.0666000097990036 -0.2284916639328003 0.0
-0.06642932444810867 -0.23166386783123016 0.0
-0.06596076488494873 -0.23387643694877625 0.0
-0.06600863486528397 -0.2380165159702301 0.0
-0.06444340199232101 -0.2363726943731308 0.0
-0.06263495981693268 -0.23375385999679565 0.0
-0.06339666992425919 -0.24079424142837524 0.0
-0.062345411628484726 -0.24106857180595398 0.0
-0.05981602892279625 -0.23552292585372925 0.0
-0.05830395221710205 -0.23384109139442444 0.0
-0.05752077326178551 -0.23506459593772888 0.0
-0.05719491466879845 -0.23823043704032898 0.0
-0.055238090455532074 -0.23458422720432281 0.0
-0.05263932794332504 -0.2280024290084839 0.0
-0.049878381192684174 -0.22042720019817352 0.0
-0.05043121799826622 -0.2274768054485321 0.0
-0.04943819344043732 -0.22769469022750854 0.0
-0.04740465059876442 -0.22301749885082245 0.0
-0.04704204574227333 -0.22615934908390045 0.0
-0.043263599276542664 -0.21264351904392242 0.0
-0.038433488458395004 -0.19321458041667938 0.0
-0.0 -0.0 0.0
-0.39021575450897217 -2.0552847385406494 0.0
-0.3881693482398987 -2.094331741333008 0.0
-0.38507768511772156 -2.129462718963623 0.0
-0.3825549781322479 -2.169530153274536 0.0
-0.380367249250412 -2.213557481765747 0.0
-0.3768121302127838 -2.2516887187957764 0.0
-0.3721276819705963 -2.284895181655884 0.0
-0.3663783073425293 -2.313164710998535 0.0
-0.35704249143600464 -2.319683313369751 0.0
-0.7743934988975525 -5.181451320648193 0.0
-0.750773549079895 -5.177853584289551 0.0
-0.7273388504981995 -5.175138473510742 0.0
-0.7042118906974792 -5.174299240112305 0.0
-0.6812366843223572 -5.1743483543396 0.0
-0.6578958034515381 -5.171319484710693 0.0
-0.6344724893569946 -5.1671929359436035 0.0
-0.6115679144859314 -5.166932582855225 0.0
-0.5885644555091858 -5.1655778884887695 0.0
-0.5651490092277527 -5.160144805908203 0.0
-0.5418967008590698 -5.155599117279053 0.0
-0.518995463848114 -5.153934955596924 0.0
-0.49573564529418945 -5.148187637329102 0.0
-0.472901850938797 -5.146317958831787 0.0
-0.4501810669898987 -5.145344257354736 0.0
-0.42722928524017334 -5.141280174255371 0.0
-0.4043215811252594 -5.137113571166992 0.0
-0.3816065788269043 -5.1348395347595215 0.0
-0.3587796092033386 -5.130470275878906 0.0
-0.3360634446144104 -5.126997470855713 0.0
-0.3136286437511444 -5.127417087554932 0.0
-0.29091307520866394 -5.122746467590332 0.0
-0.2680872678756714 -5.1149797439575195 0.0
-0.24557466804981232 -5.112104892730713 0.0
-0.22317951917648315 -5.1111297607421875 0.0
-0.20075829327106476 -5.109057426452637 0.0
-0.17828959226608276 -5.104887962341309 0.0
-0.15589162707328796 -5.101618766784668 0.0
-0.13349944353103638 -5.097252368927002 0.0
-0.11119193583726883 -5.094787120819092 0.0
-0.08896087110042572 -5.095223426818848 0.0
-0.06664954870939255 -5.089563846588135 0.0
-0.04439804330468178 -5.084806442260742 0.0
-0.022211166098713875 -5.084951400756836 0.0
-2.3844493625801988e-05 -5.081000328063965 0.0
0.022119853645563126 -5.074952125549316 0.0
0.044184610247612 -5.065807819366455 0.0
0.06622232496738434 -5.0605669021606445 0.0
0.017971046268939972 -1.0298433303833008 0.0
0.022420750930905342 -1.0277554988861084 0.0
0.026878757402300835 -1.0266482830047607 0.0
0.03132752701640129 -1.0255216360092163 0.0
0.03573208302259445 -1.02337646484375 0.0
0.04027553275227547 -1.0252091884613037 0.0
0.04492288827896118 -1.0290199518203735 0.0
0.2414969503879547 -5.028204441070557 0.0
0.07608924061059952 -1.4520078897476196 0.0
0.08253741264343262 -1.4536588191986084 0.0
0.08881831169128418 -1.4522866010665894 0.0
0.09521960467100143 -1.4528831243515015 0.0
0.10093027353286743 -1.4434757232666016 0.0
0.3732587993144989 -5.023151397705078 0.0
0.39517268538475037 -5.021474838256836 0.0
0.4169962406158447 -5.018706321716309 0.0
0.43880316615104675 -5.015842914581299 0.0
0.46068453788757324 -5.013880729675293 0.0
0.48255714774131775 -5.011822700500488 0.0
0.5043203830718994 -5.008674621582031 0.0
0.5259608030319214 -5.00443696975708 0.0
0.5475738644599915 -5.000106334686279 0.0
0.5690459609031677 -4.994688987731934 0.0
0.5907161831855774 -4.9911651611328125 0.0
0.612610399723053 -4.989533424377441 0.0
0.3074076175689697 -2.4165258407592773 0.0
0.3231695294380188 -2.4548192024230957 0.0
0.33198970556259155 -2.439513683319092 0.0
0.33094072341918945 -2.3548593521118164 0.0
0.29874029755592346 -2.060455799102783 0.0
0.27949726581573486 -1.8702305555343628 0.0
0.2812660038471222 -1.8274821043014526 0.0
0.2895500063896179 -1.828212857246399 0.0
0.29672056436538696 -1.821997046470642 0.0
0.30285218358039856 -1.8098357915878296 0.0
0.8518000245094299 -4.957352161407471 0.0
0.8735958337783813 -4.954572677612305 0.0
0.8953836560249329 -4.951697826385498 0.0
0.9167985916137695 -4.946760654449463 0.0
0.9385604858398438 -4.943696022033691 0.0
0.9603132009506226 -4.940535545349121 0.0
0.9814707636833191 -4.9343366622924805 0.0
1.0035895109176636 -4.932947158813477 0.0
1.0261218547821045 -4.933416366577148 0.0
1.0478460788726807 -4.92987060546875 0.0
1.0697708129882812 -4.927206039428711 0.0
1.0914758443832397 -4.923467636108398 0.0
1.1131685972213745 -4.919633388519287 0.0
1.1355235576629639 -4.9186272621154785 0.0
1.1581201553344727 -4.918492794036865 0.0
1.1800367832183838 -4.915337562561035 0.0
1.2017102241516113 -4.9111127853393555 0.0
1.224095106124878 -4.909704208374023 0.0
1.245751976966858 -4.905285358428955 0.0
1.2671432495117188 -4.899803161621094 0.0
1.289528727531433 -4.898095607757568 0.0
1.3111472129821777 -4.893388748168945 0.0
1.333801031112671 -4.892445087432861 0.0
1.3554025888442993 -4.887542247772217 0.0
1.3769869804382324 -4.88254451751709 0.0
1.3977264165878296 -4.874567031860352 0.0
1.1036218404769897 -3.7864437103271484 0.0
1.12183678150177 -3.7873454093933105 0.0
1.1253827810287476 -3.739323616027832 0.0
1.0805833339691162 -3.5345094203948975 0.0
1.0630797147750854 -3.423753499984741 0.0
1.0780084133148193 -3.4190824031829834 0.0
1.0953553915023804 -3.4219653606414795 0.0
1.1087309122085571 -3.412398099899292 0.0
1.118285894393921 -3.391382932662964 0.0
1.1286307573318481 -3.373194694519043 0.0
1.6450954675674438 -4.846399307250977 0.0
1.667853832244873 -4.843902587890625 0.0
1.6906217336654663 -4.841300010681152 0.0
1.7123972177505493 -4.8357625007629395 0.0
1.7348324060440063 -4.832009315490723 0.0
1.7579513788223267 -4.8300323486328125 0.0
1.7807401418685913 -4.827006816864014 0.0
1.3815433979034424 -3.695181131362915 0.0
1.4274132251739502 -3.767669677734375 0.0
1.4456309080123901 -3.766073703765869 0.0
1.4486396312713623 -3.725245475769043 0.0
1.8962446451187134 -4.813993453979492 0.0
1.917972445487976 -4.807531356811523 0.0
1.9408038854599 -4.803752899169922 0.0
1.9643959999084473 -4.801717758178711 0.0
1.4151397943496704 -3.4165165424346924 0.0
1.4408612251281738 -3.436131000518799 0.0
1.451151728630066 -3.4187653064727783 0.0
1.4648706912994385 -3.409644603729248 0.0
1.4817277193069458 -3.4078056812286377 0.0
1.494166374206543 -3.3958163261413574 0.0
2.126385450363159 -4.776031017303467 0.0
2.1480257511138916 -4.76853084564209 0.0
2.171299934387207 -4.764572620391846 0.0
2.194580316543579 -4.760502338409424 0.0
2.2178666591644287 -4.756319522857666 0.0
2.241584539413452 -4.752927780151367 0.0
2.267467737197876 -4.753933429718018 0.0
2.2920987606048584 -4.752100467681885 0.0
2.315441846847534 -4.7474470138549805 0.0
2.338345766067505 -4.741783618927002 0.0
2.3621366024017334 -4.737800121307373 0.0
2.385937213897705 -4.733698844909668 0.0
2.411562919616699 -4.733044624328613 0.0
0.0 -0.0 0.0
0.0 -0.0 0.0
2.1324844360351562 -4.053259372711182 0.0
2.1515581607818604 -4.046565055847168 0.0
2.1772403717041016 -4.052114009857178 0.0
2.2044432163238525 -4.060152053833008 0.0
2.231276512145996 -4.067152500152588 0.0
2.2591822147369385 -4.075745105743408 0.0
2.285250663757324 -4.080681324005127 0.0
2.3114051818847656 -4.085467338562012 0.0
2.338637351989746 -4.09183931350708 0.0
2.365468740463257 -4.097184658050537 0.0
2.395413875579834 -4.107556343078613 0.0
2.423464059829712 -4.114297866821289 0.0
2.45212984085083 -4.121732234954834 0.0
2.48142147064209 -4.129851341247559 0.0
2.5123867988586426 -4.140357971191406 0.0
2.540355920791626 -4.145556926727295 0.0
2.5673654079437256 -4.14888858795166 0.0
2.5976316928863525 -4.1571526527404785 0.0
2.6269516944885254 -4.163538932800293 0.0
2.6590628623962402 -4.1739654541015625 0.0
2.690232992172241 -4.18250846862793 0.0
2.7220726013183594 -4.191697120666504 0.0
2.752398729324341 -4.198178768157959 0.0
2.7833845615386963 -4.205308437347412 0.0
2.815596342086792 -4.213911056518555 0.0
2.8473763465881348 -4.221482276916504 0.0
2.8792760372161865 -4.228856563568115 0.0
2.9129929542541504 -4.238504886627197 0.0
2.9445688724517822 -4.244652271270752 0.0
2.9796950817108154 -4.255519390106201 0.0
3.013817310333252 -4.264526844024658 0.0
3.0376224517822266 -4.258663654327393 0.0
3.0585122108459473 -4.248615264892578 0.0
3.0793721675872803 -4.238465785980225 0.0
3.102566719055176 -4.231440544128418 0.0
3.123379707336426 -4.221078395843506 0.0
3.1435625553131104 -4.209814071655273 0.0
3.1655120849609375 -4.200849533081055 0.0
3.186837911605835 -4.190977573394775 0.0
3.207528829574585 -4.180205821990967 0.0
3.230023145675659 -4.17170524597168 0.0
3.252504587173462 -4.163088798522949 0.0
3.2724955081939697 -4.1512131690979 0.0
3.2943124771118164 -4.141590595245361 0.0
3.315481662750244 -4.131076812744141 0.0
3.3372511863708496 -4.121233940124512 0.0
3.360262870788574 -4.112828254699707 0.0
3.3832650184631348 -4.104300498962402 0.0
3.4043381214141846 -4.093343734741211 0.0
3.4266655445098877 -4.083812713623047 0.0
3.4483284950256348 -4.073401927947998 0.0
3.4706151485443115 -4.063640117645264 0.0
3.491576910018921 -4.05224609375 0.0
3.5538361072540283 -4.088293075561523 0.0
3.107465982437134 -3.5434484481811523 0.0
3.147413969039917 -3.5575673580169678 0.0
0.0 -0.0 0.0
3.605909585952759 -4.004839897155762 0.0
3.6294007301330566 -3.995729923248291 0.0
3.6515297889709473 -3.9850165843963623 0.0
3.6736342906951904 -3.974186420440674 0.0
3.695713758468628 -3.9632389545440674 0.0
0.0 -0.0 0.0
3.006704330444336 -3.1684622764587402 0.0
3.0184261798858643 -3.1531460285186768 0.0
3.0411860942840576 -3.1492972373962402 0.0
0.0 -0.0 0.0
3.5031120777130127 -3.5648577213287354 0.0
3.4925851821899414 -3.523261785507202 0.0
3.846625804901123 -3.846696138381958 0.0
3.881838083267212 -3.848180055618286 0.0
3.8957390785217285 -3.828402519226074 0.0
3.9073922634124756 -3.806483268737793 0.0
3.918928623199463 -3.7845354080200195 0.0
3.928180456161499 -3.760484457015991 0.0
3.938023090362549 -3.7371139526367188 0.0
3.9477360248565674 -3.713728666305542 0.0
3.958051919937134 -3.691012144088745 0.0
0.0 -0.0 0.0
0.0 -0.0 0.0
3.452347755432129 -3.135951280593872 0.0
3.4607961177825928 -3.1161739826202393 0.0
0.0 -0.0 0.0
1.906825304031372 -1.6870487928390503 0.0
1.904394507408142 -1.6701412200927734 0.0
1.9056259393692017 -1.6565673351287842 0.0
1.9143511056900024 -1.6495423316955566 0.0
1.9260927438735962 -1.6450705528259277 0.0
1.9393579959869385 -1.641819715499878 0.0
1.9510995149612427 -1.6371989250183105 0.0
4.087899684906006 -3.3999369144439697 0.0
4.101151943206787 -3.380795478820801 0.0
4.111992835998535 -3.3597054481506348 0.0
4.1196184158325195 -3.3360676765441895 0.0
4.1302361488342285 -3.3149313926696777 0.0
4.139965057373047 -3.2931432723999023 0.0
4.148797512054443 -3.270714282989502 0.0
4.15830135345459 -3.248886823654175 0.0
1.8454554080963135 -1.4289333820343018 0.0
1.8492926359176636 -1.4190412759780884 0.0
1.8483027219772339 -1.4055110216140747 0.0
1.844834327697754 -1.3902111053466797 0.0
1.8524850606918335 -1.3833448886871338 0.0
1.8649343252182007 -1.3800076246261597 0.0
1.8838409185409546 -1.3813183307647705 0.0
1.9464808702468872 -1.4142309427261353 0.0
2.1539018154144287 -1.5506203174591064 0.0
2.2233335971832275 -1.5859222412109375 0.0
2.245748519897461 -1.5871721506118774 0.0
2.2542905807495117 -1.578505277633667 0.0
5.761348247528076 -3.9968762397766113 0.0
5.8026323318481445 -3.9881255626678467 0.0
5.847255706787109 -3.98134183883667 0.0
5.8894429206848145 -3.972566843032837 0.0
5.930832386016846 -3.9629435539245605 0.0
