# .PCD v0.7 - Point Cloud Data file format
VERSION 0.7
FIELDS x y z
SIZE 4 4 4
TYPE F F F
COUNT 1 1 1
WIDTH 958
HEIGHT 1
VIEWPOINT 0 0 0 1 0 0 0
POINTS 958
DATA ascii
1.7960463762283325 1.704345464706421 0.0
1.7799243927001953 1.70386803150177 0.0
1.7645601034164429 1.7039768695831299 0.0
1.7399169206619263 1.6949131488800049 0.0
1.7282254695892334 1.698283314704895 0.0
1.7250601053237915 1.7100319862365723 0.0
1.7239463329315186 1.7239066362380981 0.0
3.2089366912841797 3.236987829208374 0.0
3.215108871459961 3.2716429233551025 0.0
0.0 0.0 0.0
0.0 0.0 0.0
2.1132898330688477 2.207519769668579 0.0
2.0809216499328613 2.1927826404571533 0.0
2.065852403640747 2.196014404296875 0.0
1.98600435256958 2.129678726196289 0.0
2.242786407470703 2.426175355911255 0.0
0.0 0.0 0.0
1.9666986465454102 2.1651148796081543 0.0
1.9438501596450806 2.1588127613067627 0.0
1.921760082244873 2.1530988216400146 0.0
1.9037330150604248 2.1517271995544434 0.0
1.8824578523635864 2.1464803218841553 0.0
1.8619210720062256 2.141843557357788 0.0
1.8453775644302368 2.1416141986846924 0.0
1.8262735605239868 2.138239622116089 0.0
1.809818983078003 2.1377925872802734 0.0
1.7959744930267334 2.1403067111968994 0.0
1.7789450883865356 2.1388964653015137 0.0
1.7613264322280884 2.1366071701049805 0.0
1.7456599473953247 2.136528253555298 0.0
1.733174443244934 2.1402390003204346 0.0
1.7194379568099976 2.142321825027466 0.0
1.697623610496521 2.1341519355773926 0.0
1.674056053161621 2.12347674369812 0.0
1.634606957435608 2.092148780822754 0.0
1.283227801322937 1.6572697162628174 0.0
1.265026569366455 1.6485728025436401 0.0
1.2578213214874268 1.6540766954421997 0.0
1.2487866878509521 1.6571533679962158 0.0
1.225987434387207 1.641753911972046 0.0
1.2021570205688477 1.624579906463623 0.0
1.1932830810546875 1.6273905038833618 0.0
1.177941918373108 1.6212555170059204 0.0
1.166766881942749 1.6206988096237183 0.0
1.1561998128890991 1.620889663696289 0.0
1.1404590606689453 1.613669514656067 0.0
1.1345545053482056 1.6202685832977295 0.0
1.1320340633392334 1.6317766904830933 0.0
1.1232041120529175 1.6342281103134155 0.0
1.112686038017273 1.634153962135315 0.0
1.101630687713623 1.6331902742385864 0.0
1.0856049060821533 1.6246780157089233 0.0
1.0685704946517944 1.6143895387649536 0.0
1.0505502223968506 1.6023110151290894 0.0
1.0348345041275024 1.593461036682129 0.0
1.028412938117981 1.5988022089004517 0.0
1.0348597764968872 1.624358892440796 0.0
1.034699559211731 1.6398531198501587 0.0
1.013756275177002 1.6223031282424927 0.0
0.9919338226318359 1.6029013395309448 0.0
0.9739577174186707 1.5893088579177856 0.0
0.9675326943397522 1.5943983793258667 0.0
0.9600515961647034 1.597747564315796 0.0
0.9505144953727722 1.5976243019104004 0.0
0.9531779885292053 1.6181273460388184 0.0
0.9597107768058777 1.6455942392349243 0.0
0.9390211701393127 1.626383662223816 0.0
0.9170289635658264 1.6044195890426636 0.0
0.9036180377006531 1.5970909595489502 0.0
0.8971295356750488 1.601891040802002 0.0
0.8794654607772827 1.5865488052368164 0.0
0.8629144430160522 1.5728365182876587 0.0
0.8608152866363525 1.5853749513626099 0.0
0.8595696091651917 1.5996863842010498 0.0
0.8812199831008911 1.6572811603546143 0.0
0.9345118403434753 1.776158094406128 0.0
0.9456852078437805 1.8165857791900635 0.0
0.9473654627799988 1.839363932609558 0.0
0.9484108090400696 1.861299991607666 0.0
0.949282705783844 1.8832801580429077 0.0
0.9450722336769104 1.895458459854126 0.0
0.9465234279632568 1.9192951917648315 0.0
0.9429621696472168 1.9332934617996216 0.0
0.9327799081802368 1.9337867498397827 0.0
0.9325132966041565 1.9549872875213623 0.0
0.9333590865135193 1.9789354801177979 0.0
0.9314775466918945 1.9974898099899292 0.0
0.9273585081100464 2.0115246772766113 0.0
0.9181580543518066 2.014641761779785 0.0
0.9097696542739868 2.019540786743164 0.0
0.902169406414032 2.0262317657470703 0.0
0.8909032344818115 2.0246570110321045 0.0
0.8736866116523743 2.0092668533325195 0.0
0.8585951924324036 1.9983593225479126 0.0
0.845569372177124 1.9919610023498535 0.0
0.8043851256370544 1.9181671142578125 0.0
0.6723970770835876 1.6232471466064453 0.0
0.6380443572998047 1.559527039527893 0.0
0.6278620958328247 1.553951621055603 0.0
0.6203345656394958 1.5548186302185059 0.0
0.6113455295562744 1.551928162574768 0.0
0.6027559041976929 1.5499207973480225 0.0
0.5927619934082031 1.5441339015960693 0.0
0.5838930606842041 1.5410947799682617 0.0
0.5778636932373047 1.5455011129379272 0.0
0.5704224705696106 1.5461314916610718 0.0
0.5619606971740723 1.5439072847366333 0.0
0.5518395304679871 1.5369328260421753 0.0
0.5427914261817932 1.5327274799346924 0.0
0.535439133644104 1.5331931114196777 0.0
0.5284186601638794 1.534569263458252 0.0
0.5210750102996826 1.5349664688110352 0.0
0.5111993551254272 1.5277422666549683 0.0
0.5026494264602661 1.5242600440979004 0.0
0.4953758418560028 1.5245366096496582 0.0
0.48688986897468567 1.520969271659851 0.0
0.4802488386631012 1.5230792760849 0.0
0.480419397354126 1.5471255779266357 0.0
0.5064114332199097 1.6563127040863037 0.0
0.5418347120285034 1.8002265691757202 0.0
0.5365309119224548 1.811202883720398 0.0
0.5289028286933899 1.8144867420196533 0.0
0.5193268060684204 1.8110096454620361 0.0
0.5114198923110962 1.813258409500122 0.0
0.5029687881469727 1.8135453462600708 0.0
0.4916313588619232 1.803180456161499 0.0
0.48194706439971924 1.7985470294952393 0.0
0.47460412979125977 1.8025668859481812 0.0
0.46823689341545105 1.8104294538497925 0.0
0.46057915687561035 1.8134243488311768 0.0
0.45314618945121765 1.8173574209213257 0.0
0.4456876218318939 1.8212599754333496 0.0
0.43750321865081787 1.822214961051941 0.0
0.43229877948760986 1.8357869386672974 0.0
0.4281090497970581 1.8542200326919556 0.0
0.4239872992038727 1.873626470565796 0.0
0.423600435256958 1.9106051921844482 0.0
0.41929152607917786 1.9310026168823242 0.0
0.4123174846172333 1.939660668373108 0.0
0.40446123480796814 1.94437837600708 0.0
0.39577415585517883 1.945144772529602 0.0
0.386502742767334 1.942929983139038 0.0
0.37744903564453125 1.9416530132293701 0.0
0.36971962451934814 1.9472112655639648 0.0
0.3612198531627655 1.9488059282302856 0.0
0.3518234193325043 1.9454432725906372 0.0
0.34333154559135437 1.9469599723815918 0.0
0.33483314514160156 1.9484394788742065 0.0
0.3256680965423584 1.945936679840088 0.0
0.31765660643577576 1.9503000974655151 0.0
0.30085206031799316 1.8993202447891235 0.0
0.25041961669921875 1.626839280128479 0.0
0.22395388782024384 1.498355746269226 0.0
0.21310876309871674 1.4696290493011475 0.0
0.2071118801832199 1.4735157489776611 0.0
0.21066062152385712 1.5477293729782104 0.0
0.24541756510734558 1.8639127016067505 0.0
0.24775820970535278 1.947301983833313 0.0
0.24072183668613434 1.9602751731872559 0.0
0.23228386044502258 1.9622998237609863 0.0
0.22247417271137238 1.9523653984069824 0.0
0.21449774503707886 1.9582878351211548 0.0
0.20563749969005585 1.956221580505371 0.0
0.19579735398292542 1.944165587425232 0.0
0.18692909181118011 1.9410197734832764 0.0
0.18202725052833557 1.9806532859802246 0.0
0.19578634202480316 2.237450361251831 0.0
0.1946355104446411 2.341926097869873 0.0
0.16997584700584412 2.15932035446167 0.0
0.1441711038351059 1.9396494626998901 0.0
0.1322178989648819 1.890381932258606 0.0
0.12678135931491852 1.9338487386703491 0.0
0.1390429586172104 2.2727508544921875 0.0
0.1433020681142807 2.5229337215423584 0.0
0.12794724106788635 2.4406485557556152 0.0
0.11336129158735275 2.359278440475464 0.0
0.10337145626544952 2.366743803024292 0.0
0.09830660372972488 2.5010688304901123 0.0
0.0972738042473793 2.784301280975342 0.0
0.08622413128614426 2.8206825256347656 0.0
0.07517312467098236 2.8690154552459717 0.0
0.0937846377491951 4.294976234436035 0.0
0.07736682146787643 4.4283246994018555 0.0
0.058266833424568176 4.445618152618408 0.0
0.013201048597693443 1.5099424123764038 0.0
0.006546926684677601 1.494985818862915 0.0
2.3799919290468097e-05 1.4940000772476196 0.0
-0.006499295122921467 1.4949859380722046 0.0
-0.013030992820858955 1.495943307876587 0.0
-0.0194535069167614 1.487872838973999 0.0
-0.07724316418170929 4.429327011108398 0.0
-0.09659064561128616 4.429947376251221 0.0
-0.1158926859498024 4.428483963012695 0.0
-0.1345122903585434 4.404946804046631 0.0
-0.0 0.0 0.0
-0.07617197930812836 1.939504861831665 0.0
-0.08450305461883545 1.9361568689346313 0.0
-0.09314210712909698 1.939765214920044 0.0
-0.10573822259902954 2.0182321071624756 0.0
-0.13364332914352417 2.3542096614837646 0.0
-0.14678268134593964 2.4005167484283447 0.0
-0.1554899662733078 2.372910976409912 0.0
-0.16416840255260468 2.348268508911133 0.0
-0.17211616039276123 2.316615104675293 0.0
-0.16574959456920624 2.1064891815185547 0.0
-0.1602022647857666 1.9283568859100342 0.0
-0.1666976511478424 1.9057233333587646 0.0
-0.18333643674850464 1.9955962896347046 0.0
-0.2233782261610031 2.320272207260132 0.0
-0.2385086864233017 2.3690240383148193 0.0
-0.24957473576068878 2.374922513961792 0.0
-0.26015251874923706 2.3757989406585693 0.0
-0.2705163359642029 2.3746414184570312 0.0
-0.28087499737739563 2.3734383583068848 0.0
-0.29159387946128845 2.3751678466796875 0.0
-0.30233317613601685 2.3768489360809326 0.0
-0.31270116567611694 2.375507354736328 0.0
-0.32333284616470337 2.3761017322540283 0.0
-0.3349498212337494 2.3835809230804443 0.0
-0.34592077136039734 2.3860552310943604 0.0
-0.3570674955844879 2.3894684314727783 0.0
-0.3677942454814911 2.389864444732666 0.0
-0.37524646520614624 2.3694708347320557 0.0
-0.3870280981063843 2.3766939640045166 0.0
-0.39970502257347107 2.3887906074523926 0.0
-0.4094468653202057 2.3830816745758057 0.0
-0.41619476675987244 2.360591411590576 0.0
-0.426668643951416 2.359736919403076 0.0
-0.4404229521751404 2.3765347003936768 0.0
-0.4513477683067322 2.377537727355957 0.0
-0.46057260036468506 2.3696558475494385 0.0
-0.4701274037361145 2.3637006282806396 0.0
-0.4790409803390503 2.354767322540283 0.0
-0.488903671503067 2.350696563720703 0.0
-0.5010268688201904 2.357344388961792 0.0
-0.5108835697174072 2.3531816005706787 0.0
-0.04566522315144539 0.2059992551803589 0.0
-0.049653153866529465 0.2194528877735138 0.0
-0.04881073907017708 0.21143914759159088 0.0
-0.048128560185432434 0.20441047847270966 0.0
-0.05065400153398514 0.21100515127182007 0.0
-0.05181186646223068 0.2117534726858139 0.0
-0.05104197934269905 0.20473329722881317 0.0
-0.050704121589660645 0.1996624618768692 0.0
-0.054829541593790054 0.21202529966831207 0.0
-0.05677248537540436 0.2156522423028946 0.0
-0.057454098016023636 0.21443654596805573 0.0
-0.06075632572174072 0.2228669375181198 0.0
-0.06333151459693909 0.22838154435157776 0.0
-0.06514167040586472 0.23099040985107422 0.0
-0.06449520587921143 0.224936380982399 0.0
-0.06379718333482742 0.21889249980449677 0.0
-0.06503566354513168 0.21957087516784668 0.0
-0.06599309295415878 0.2192850112915039 0.0
-0.06665690988302231 0.2180386781692505 0.0
-0.06879374384880066 0.221565842628479 0.0
-0.07096260040998459 0.22507846355438232 0.0
-0.07163915783166885 0.22381429374217987 0.0
-0.07199703902006149 0.22159744799137115 0.0
-0.0704580694437027 0.21368356049060822 0.0
-0.06980332732200623 0.2086324542760849 0.0
-0.07457005232572556 0.21968913078308105 0.0
-0.07455125451087952 0.2165250927209854 0.0
-0.07120954245328903 0.2039245069026947 0.0
-0.07510276138782501 0.21209567785263062 0.0
-0.07839277386665344 0.2183542400598526 0.0
-0.07968677580356598 0.2189498245716095 0.0
-0.07856475561857224 0.21297085285186768 0.0
-0.07424040138721466 0.19857585430145264 0.0
-0.0736890435218811 0.19450944662094116 0.0
-0.07632879912853241 0.1988540142774582 0.0
-0.08081993460655212 0.2078392207622528 0.0
-0.08465790748596191 0.21492798626422882 0.0
-0.07966624200344086 0.19969549775123596 0.0
-0.07978763431310654 0.1974916160106659 0.0
-0.08254174143075943 0.20176933705806732 0.0
-0.0861000046133995 0.20787446200847626 0.0
-0.08932635933160782 0.21303005516529083 0.0
-0.08830145001411438 0.20803570747375488 0.0
-0.08881360292434692 0.20672965049743652 0.0
-0.09011351317167282 0.2072572261095047 0.0
-0.0910169780254364 0.20686206221580505 0.0
-0.09151198714971542 0.20554940402507782 0.0
-0.09364009648561478 0.20788347721099854 0.0
-0.09413158148527145 0.20656295120716095 0.0
-0.09168285876512527 0.19888503849506378 0.0
-0.09424018114805222 0.20210836827754974 0.0
-0.09341493248939514 0.19807739555835724 0.0
-0.09255632758140564 0.19405753910541534 0.0
-0.09687760472297668 0.2008574903011322 0.0
-0.1003832146525383 0.20582570135593414 0.0
-0.09641534090042114 0.1955200433731079 0.0
-0.09057480841875076 0.1816733479499817 0.0
-0.08911623805761337 0.17681148648262024 0.0
-0.0898868665099144 0.17642097175121307 0.0
-0.09523435682058334 0.18491733074188232 0.0
-0.100657619535923 0.19337023794651031 0.0
-0.09824120253324509 0.18673422932624817 0.0
-0.0967077687382698 0.18188901245594025 0.0
-0.10460003465414047 0.19467881321907043 0.0
-0.10687989741563797 0.1968570351600647 0.0
-0.0981183797121048 0.1788540929555893 0.0
-0.09501948952674866 0.17142724990844727 0.0
-0.09625517576932907 0.17188352346420288 0.0
-0.10685238242149353 0.1888691931962967 0.0
-0.10817165672779083 0.18926937878131866 0.0
-0.0 0.0 0.0
-0.0 0.0 0.0
-0.0 0.0 0.0
-0.0 0.0 0.0
-0.0 0.0 0.0
-0.0 0.0 0.0
-0.0 0.0 0.0
-0.0 0.0 0.0
-0.0 0.0 0.0
-0.0 0.0 0.0
-0.0 0.0 0.0
-0.0 0.0 0.0
-0.0 0.0 0.0
-0.0 0.0 0.0
-0.0 0.0 0.0
-0.0 0.0 0.0
-0.0 0.0 0.0
-0.0 0.0 0.0
-0.0 0.0 0.0
-0.0 0.0 0.0
-0.0 0.0 0.0
-0.0 0.0 0.0
-0.0 0.0 0.0
-0.0 0.0 0.0
-0.0 0.0 0.0
-0.0 0.0 0.0
-0.0 0.0 0.0
-0.0 0.0 0.0
-0.0 0.0 0.0
-0.0 0.0 0.0
-0.0 0.0 0.0
-0.0 0.0 0.0
-0.13913601636886597 0.17809316515922546 0.0
-0.14672163128852844 0.18612299859523773 0.0
-0.15002232789993286 0.18861152231693268 0.0
-0.15209569036960602 0.18951493501663208 0.0
-0.15229184925556183 0.1880723237991333 0.0
-0.1512129306793213 0.1850828230381012 0.0
-0.15265512466430664 0.18519291281700134 0.0
-0.15346172451972961 0.18452507257461548 0.0
-0.15233708918094635 0.18155555427074432 0.0
-0.15248170495033264 0.180125892162323 0.0
-0.15261675417423248 0.17869843542575836 0.0
-0.15339501202106476 0.1780308187007904 0.0
-0.15482640266418457 0.17811454832553864 0.0
-0.15494276583194733 0.17668545246124268 0.0
-0.15637482702732086 0.17675668001174927 0.0
-0.15847629308700562 0.1775648146867752 0.0
-0.16326425969600677 0.181330606341362 0.0
-0.16472624242305756 0.181356742978096 0.0
-0.1628136932849884 0.17768710851669312 0.0
-0.16562379896640778 0.17917802929878235 0.0
-0.17322386801242828 0.18576732277870178 0.0
-0.17814378440380096 0.18938004970550537 0.0
-0.1858517974615097 0.19585482776165009 0.0
-0.19500258564949036 0.20371057093143463 0.0
-0.2042253017425537 0.21149002015590668 0.0
-0.21561279892921448 0.22134166955947876 0.0
-0.22358545660972595 0.22753141820430756 0.0
-0.23091211915016174 0.2329454869031906 0.0
-0.23758308589458466 0.23759271204471588 0.0
-0.2379073202610016 0.2358497679233551 0.0
-0.23608121275901794 0.232005774974823 0.0
-0.23852382600307465 0.2323690801858902 0.0
-0.24097409844398499 0.23271547257900238 0.0
-0.23982016742229462 0.22958724200725555 0.0
-0.24081963300704956 0.2285386472940445 0.0
-0.24035781621932983 0.22611530125141144 0.0
-0.2391481101512909 0.22301837801933289 0.0
-0.24232184886932373 0.2240092158317566 0.0
-0.24403423070907593 0.22362537682056427 0.0
-0.1863536387681961 -0.17076165974140167 0.011035705916583538
-0.17827054858207703 -0.16479159891605377 0.010599511675536633
-0.18485639989376068 -0.17238135635852814 0.011035705916583538
-0.18555784225463867 -0.17455536127090454 0.01112294476479292
-0.18189570307731628 -0.17261254787445068 0.010948467068374157
-0.1840275228023529 -0.17616797983646393 0.01112294476479292
-0.1875690370798111 -0.18113325536251068 0.011384660378098488
-0.18534566462039948 -0.18055570125579834 0.011297421529889107
-0.1817058026790619 -0.178561732172966 0.01112294476479292
-0.18092495203018188 -0.17935286462306976 0.01112294476479292
-0.17731493711471558 -0.1773148477077484 0.010948467068374157
-0.17231948673725128 -0.17382976412773132 0.010686749592423439
-0.1722596287727356 -0.17529256641864777 0.01073036901652813
-0.17219026386737823 -0.17675814032554626 0.010773989371955395
-0.17141738533973694 -0.17750777304172516 0.010773989371955395
-0.16925951838493347 -0.17681066691875458 0.010686749592423439
-0.16642333567142487 -0.17537346482276917 0.010555892251431942
-0.16634108126163483 -0.1768256276845932 0.010599511675536633
-0.16624930500984192 -0.17828039824962616 0.010643131099641323
-0.16614797711372375 -0.17973770201206207 0.010686749592423439
-0.16603709757328033 -0.18119752407073975 0.01073036901652813
-0.16457317769527435 -0.18118074536323547 0.010686749592423439
-0.1624440848827362 -0.18041224777698517 0.010599511675536633
-0.1623205989599228 -0.1818646639585495 0.010643131099641323
-0.16284950077533722 -0.18406765162944794 0.01073036901652813
-0.16138608753681183 -0.1840253323316574 0.010686749592423439
-0.159926176071167 -0.1839737743139267 0.010643131099641323
-0.15781764686107635 -0.18315614759922028 0.010555892251431942
-0.15701697766780853 -0.1838430017232895 0.010555892251431942
-0.15944087505340576 -0.18833889067173004 0.010773989371955395
-0.15925975143909454 -0.18979810178279877 0.010817608796060085
-0.1584300994873047 -0.190491184592247 0.010817608796060085
-0.1582328975200653 -0.19195154309272766 0.010861228220164776
-0.1567617505788803 -0.19186647236347198 0.010817608796060085
-0.1527794748544693 -0.18866661190986633 0.010599511675536633
-0.15383078157901764 -0.19166885316371918 0.01073036901652813
-0.15485879778862 -0.19468383491039276 0.010861228220164776
-0.15586337447166443 -0.19771136343479156 0.010992085561156273
-0.15745951235294342 -0.20153860747814178 0.011166563257575035
-0.1565786451101303 -0.2022237330675125 0.011166563257575035
-0.15508662164211273 -0.20211240649223328 0.01112294476479292
-0.15420328080654144 -0.20278717577457428 0.01112294476479292
-0.15331698954105377 -0.20345808565616608 0.01112294476479292
-0.1554165780544281 -0.20812757313251495 0.011341041885316372
-0.1551012247800827 -0.20960679650306702 0.011384660378098488
-0.15182216465473175 -0.20705881714820862 0.011210182681679726
-0.150330051779747 -0.20691105723381042 0.011166563257575035
-0.15059320628643036 -0.20918665826320648 0.011253802105784416
-0.14735841751098633 -0.20658835768699646 0.011079324409365654
-0.14472582936286926 -0.20478177070617676 0.010948467068374157
-0.14612305164337158 -0.2086848020553589 0.01112294476479292
-0.14634999632835388 -0.21096208691596985 0.011210182681679726
-0.14486226439476013 -0.21077531576156616 0.011166563257575035
-0.14450347423553467 -0.21223117411136627 0.011210182681679726
-0.14078277349472046 -0.2087184339761734 0.010992085561156273
-0.1365404725074768 -0.2043466567993164 0.01073036901652813
-0.13785320520401 -0.20827284455299377 0.010904846712946892
-0.13803867995738983 -0.21054333448410034 0.010992085561156273
-0.13603046536445618 -0.20946788787841797 0.010904846712946892
-0.13403429090976715 -0.20837897062301636 0.010817608796060085
-0.13205021619796753 -0.2072766274213791 0.01073036901652813
-0.13221077620983124 -0.2095406949520111 0.010817608796060085
-0.13076581060886383 -0.20926833152770996 0.010773989371955395
-0.13037718832492828 -0.21068644523620605 0.010817608796060085
-0.13102266192436218 -0.2138087898492813 0.010948467068374157
-0.12853366136550903 -0.21181616187095642 0.010817608796060085
-0.12657912075519562 -0.21066226065158844 0.01073036901652813
-0.12719117105007172 -0.21378833055496216 0.010861228220164776
-0.1277783066034317 -0.21692368388175964 0.010992085561156273
-0.1258239895105362 -0.21575312316417694 0.010904846712946892
-0.12388236075639725 -0.21456968784332275 0.010817608796060085
-0.12195345014333725 -0.21337342262268066 0.01073036901652813
-0.12102128565311432 -0.2139035016298294 0.01073036901652813
-0.12057497352361679 -0.21530120074748993 0.010773989371955395
-0.11963440477848053 -0.21582524478435516 0.010773989371955395
-0.11917208880186081 -0.21722108125686646 0.010817608796060085
-0.11726973950862885 -0.21598303318023682 0.01073036901652813
-0.11490762233734131 -0.21385250985622406 0.010599511675536633
-0.11538050323724747 -0.2169981598854065 0.01073036901652813
-0.11489775776863098 -0.21838368475437164 0.010773989371955395
-0.11394379287958145 -0.21888293325901031 0.010773989371955395
-0.11253021657466888 -0.2184898406267166 0.01073036901652813
-0.10976157337427139 -0.21541814506053925 0.010555892251431942
-0.10837092995643616 -0.2150028944015503 0.010512272827327251
-0.10832332819700241 -0.21726185083389282 0.010599511675536633
-0.10825805366039276 -0.21952445805072784 0.010686749592423439
-0.10686122626066208 -0.2190968096256256 0.010643131099641323
-0.1054701954126358 -0.2186611443758011 0.010599511675536633
-0.10494521260261536 -0.22002097964286804 0.010643131099641323
-0.10355803370475769 -0.21957319974899292 0.010599511675536633
-0.10217677056789398 -0.21911752223968506 0.010555892251431942
-0.10121972858905792 -0.21956126391887665 0.010555892251431942
-0.10026075690984726 -0.22000081837177277 0.010555892251431942
-0.09847921133041382 -0.21861441433429718 0.010468653403222561
-0.09752439707517624 -0.21904201805591583 0.010468653403222561
-0.09656772762537003 -0.2194654643535614 0.010468653403222561
-0.09600759297609329 -0.22080090641975403 0.010512272827327251
-0.09583199769258499 -0.22305354475975037 0.010599511675536633
-0.09524820744991302 -0.2243891954421997 0.010643131099641323
-0.09310919046401978 -0.22203868627548218 0.010512272827327251
-0.09137483686208725 -0.22059683501720428 0.01042503397911787
-0.09041144698858261 -0.22099342942237854 0.01042503397911787
-0.09056908637285233 -0.22416472434997559 0.010555892251431942
-0.08996033668518066 -0.225485697388649 0.010599511675536633
-0.08860946446657181 -0.224946528673172 0.010555892251431942
-0.0872650220990181 -0.22439990937709808 0.010512272827327251
-0.08592703938484192 -0.22384583950042725 0.010468653403222561
-0.08565743267536163 -0.22608712315559387 0.010555892251431942
-0.08536988496780396 -0.22833026945590973 0.010643131099641323
-0.0829896405339241 -0.22495140135288239 0.010468653403222561
-0.08132392913103104 -0.22343376278877258 0.01038141455501318
-0.08169864118099213 -0.22754760086536407 0.010555892251431942
-0.08103850483894348 -0.22884365916252136 0.010599511675536633
-0.07938046008348465 -0.22730869054794312 0.010512272827327251
-0.07773736864328384 -0.22576364874839783 0.01042503397911787
-0.07707269489765167 -0.22704672813415527 0.010468653403222561
-0.07671530544757843 -0.2292756885290146 0.010555892251431942
-0.07571417838335037 -0.22960823774337769 0.010555892251431942
-0.07471161335706711 -0.229936420917511 0.010555892251431942
-0.07370762526988983 -0.2302602231502533 0.010555892251431942
-0.07330307364463806 -0.23248524963855743 0.010643131099641323
-0.07376928627490997 -0.23757342994213104 0.010861228220164776
-0.07331617921590805 -0.23980383574962616 0.010948467068374157
-0.07025367766618729 -0.2334248274564743 0.010643131099641323
-0.06895075738430023 -0.23277124762535095 0.010599511675536633
-0.06961184740066528 -0.23882469534873962 0.010861228220164776
-0.0680183693766594 -0.23720546066761017 0.010773989371955395
-0.06562680006027222 -0.23269230127334595 0.010555892251431942
-0.06541182845830917 -0.2358645498752594 0.010686749592423439
-0.06464485079050064 -0.23711158335208893 0.01073036901652813
-0.06335107237100601 -0.23642638325691223 0.010686749592423439
-0.0620645135641098 -0.23573444783687592 0.010643131099641323
-0.06003476679325104 -0.23213410377502441 0.010468653403222561
-0.059759095311164856 -0.2352987676858902 0.010599511675536633
-0.05873185023665428 -0.23555727303028107 0.010599511675536633
-0.057940952479839325 -0.23678171634674072 0.010643131099641323
-0.05714047700166702 -0.2380037009716034 0.010686749592423439
-0.05587247386574745 -0.2372783124446869 0.010643131099641323
-0.05258922651410103 -0.22778542339801788 0.010206936858594418
-0.05005139857530594 -0.22119182348251343 0.009901601821184158
-0.04822085052728653 -0.21750664710998535 0.009727123193442822
-0.04811926558613777 -0.22162017226219177 0.009901601821184158
-0.04611322656273842 -0.2169419378042221 0.009683504700660706
-0.04435240477323532 -0.21322862803936005 0.009509027004241943
-0.043222423642873764 -0.21244113147258759 0.009465407580137253
-0.041125621646642685 -0.2067485898733139 0.00920369103550911
-0.040985651314258575 -0.2108488380908966 0.009378168731927872
-0.3904034197330475 -2.0562732219696045 0.09138261526823044
-0.3894385099411011 -2.1011791229248047 0.09330187737941742
-0.3864889442920685 -2.1372668743133545 0.0948285460472107
-0.3837522864341736 -2.1763203144073486 0.09648609161376953
-0.38085120916366577 -2.216373920440674 0.09818724542856216
-0.377442866563797 -2.255457639694214 0.09984477609395981
-0.3732188642024994 -2.291595220565796 0.10137145966291428
-0.36727994680404663 -2.318857192993164 0.10250556468963623
-0.35822248458862305 -2.3273496627807617 0.10281089693307877
-0.7665682435035706 -5.129092693328857 0.22642825543880463
-0.743034303188324 -5.124478340148926 0.2260792851448059
-0.7202505469322205 -5.124703884124756 0.22594843804836273
-0.697074830532074 -5.121858596801758 0.225686714053154
-0.6739376187324524 -5.118907928466797 0.22542500495910645
-0.651343822479248 -5.119818210601807 0.22533777356147766
-0.6282678246498108 -5.116661548614502 0.22507604956626892
-0.6053492426872253 -5.114393711090088 0.22485794126987457
-0.5826886296272278 -5.11400842666626 0.2247270941734314
-0.5594990253448486 -5.108557224273682 0.22437812387943268
-0.536577045917511 -5.104988098144531 0.22411641478538513
-0.5135967135429382 -5.100322723388672 0.223811075091362
-0.49066734313964844 -5.095553398132324 0.22350573539733887
-0.46806368231773376 -5.093667030334473 0.2233312726020813
-0.44548577070236206 -5.091679573059082 0.22315679490566254
-0.4227686822414398 -5.087601184844971 0.2228950709104538
-0.3997821509838104 -5.079437732696533 0.2224588841199875
-0.37746718525886536 -5.079141139984131 0.2223716378211975
-0.3552321791648865 -5.079742908477783 0.22232802212238312
-0.33280307054519653 -5.07725715637207 0.22215355932712555
-0.3102804124355316 -5.072678089141846 0.2218918353319168
-0.2879173457622528 -5.069993495941162 0.22171735763549805
-0.2657404839992523 -5.07020378112793 0.22167374193668365
-0.2433755248785019 -5.066325664520264 0.2214556336402893
-0.2211366444826126 -5.064345359802246 0.22132478654384613
-0.19876277446746826 -5.058273792266846 0.221019446849823
-0.17623686790466309 -5.04611349105835 0.22045239806175232
-0.15391242504119873 -5.036848545074463 0.22001619637012482
-0.13193374872207642 -5.037471771240234 0.22001619637012482
-0.10999616980552673 -5.039997100830078 0.2201034277677536
-0.08789954334497452 -5.034436225891113 0.21984173357486725
-0.0658012107014656 -5.024781703948975 0.21940553188323975
-0.04383241757750511 -5.020026206970215 0.2191874235868454
-0.02194128930568695 -5.023167133331299 0.21931828558444977
-2.3601443899678998e-05 -5.029209136962891 0.2195800095796585
0.02190285176038742 -5.02516508102417 0.21940553188323975
0.04377658665180206 -5.0190277099609375 0.219143807888031
0.013516836799681187 -1.0329275131225586 0.045102447271347046
0.01798880472779274 -1.0308609008789062 0.045015208423137665
0.02250836044549942 -1.0317714214324951 0.045058827847242355
0.027010057121515274 -1.0316632986068726 0.045058827847242355
0.03151124343276024 -1.0315356254577637 0.045058827847242355
0.03604668751358986 -1.0323868989944458 0.045102447271347046
0.04094311594963074 -1.0422024726867676 0.04553864151239395
0.051328931003808975 -1.1757590770721436 0.05138364061713219
0.0683925598859787 -1.4240005016326904 0.06224486604332924
0.07622594386339188 -1.4546165466308594 0.06359706819057465
0.0826287567615509 -1.4552675485610962 0.06364069133996964
0.0890996903181076 -1.4568874835968018 0.06372793018817902
0.09565166383981705 -1.4594756364822388 0.06385878473520279
0.3482160270214081 -4.980085372924805 0.21796607971191406
0.37023836374282837 -4.982503890991211 0.21814057230949402
0.3920533061027527 -4.981836795806885 0.2181841880083084
0.41378673911094666 -4.98007869720459 0.2181841880083084
0.4354252517223358 -4.977230548858643 0.21814057230949402
0.45713818073272705 -4.975283622741699 0.21814057230949402
0.47865086793899536 -4.971251964569092 0.21805331110954285
0.5000370740890503 -4.966134548187256 0.21792246401309967
0.5217009782791138 -4.963905334472656 0.21792246401309967
0.5430286526679993 -4.958602428436279 0.2177916020154953
0.5646592378616333 -4.956185817718506 0.2177916020154953
0.5865139961242676 -4.95565938949585 0.21787884831428528
0.6084966063499451 -4.956027507781982 0.21800969541072845
0.31278836727142334 -2.4588236808776855 0.1082197055220604
0.3252090811729431 -2.4703121185302734 0.10878676176071167
0.33571523427963257 -2.4668896198272705 0.10869951546192169
0.34397315979003906 -2.4475936889648438 0.10791437327861786
0.29229187965393066 -2.0159802436828613 0.08893993496894836
0.27421069145202637 -1.8348561525344849 0.08100120723247528
0.28084632754325867 -1.824755311012268 0.08060862869024277
0.2894307076931 -1.8274595737457275 0.08078310638666153
0.29708051681518555 -1.8242073059082031 0.08069587498903275
0.3042127788066864 -1.8179668188095093 0.0804777666926384
0.8384698033332825 -4.879772186279297 0.21617770195007324
0.8653049468994141 -4.907551288604736 0.21757352352142334
0.8874207735061646 -4.907660961151123 0.2177479863166809
0.8935331702232361 -4.82122802734375 0.2140839695930481
0.9147473573684692 -4.818264484405518 0.2141275852918625
0.9529179930686951 -4.902489185333252 0.21805331110954285
0.975274384021759 -4.903184413909912 0.2182714194059372
0.9974558353424072 -4.902798175811768 0.21844591200351715
1.0194488763809204 -4.901333808898926 0.21857675909996033
1.0414483547210693 -4.899770736694336 0.2187076210975647
1.0632413625717163 -4.897132396697998 0.21879485249519348
1.085031270980835 -4.894397258758545 0.21888208389282227
1.1072585582733154 -4.893514156341553 0.21905657649040222
1.1288244724273682 -4.8896098136901855 0.2191001921892166
1.1506065130233765 -4.886582374572754 0.2191874235868454
1.1721502542495728 -4.882486820220947 0.2192310392856598
1.1934428215026855 -4.877326011657715 0.2192310392856598
1.215437650680542 -4.874980449676514 0.21936191618442535
1.2381725311279297 -4.87544059753418 0.2196236252784729
1.2599339485168457 -4.871926307678223 0.21971085667610168
1.2814338207244873 -4.8673481941223145 0.21975447237491608
1.3034350872039795 -4.864605903625488 0.21988534927368164
1.3259620666503906 -4.863691329956055 0.2201034277677536
1.3471711874008179 -4.8578596115112305 0.2201034277677536
1.3688969612121582 -4.853858470916748 0.22019067406654358
1.0860553979873657 -3.7876148223876953 0.1720348745584488
1.0997759103775024 -3.7732484340667725 0.1715986728668213
1.1139591932296753 -3.7607505321502686 0.17124971747398376
1.1274787187576294 -3.7462875843048096 0.17081353068351746
1.1157737970352173 -3.6496145725250244 0.16662606596946716
1.0753992795944214 -3.4634299278259277 0.15833838284015656
1.0769823789596558 -3.4158284664154053 0.15637551248073578
1.0985767841339111 -3.4320292472839355 0.15733513236045837
1.138547420501709 -3.5041658878326416 0.160868301987648
1.2051352262496948 -3.6547672748565674 0.16802188754081726
1.2372372150421143 -3.6977925300598145 0.17024646699428558
1.2549656629562378 -3.697089195251465 0.17046457529067993
1.2740124464035034 -3.700079917907715 0.17085714638233185
1.2970616817474365 -3.7142930030822754 0.17177315056324005
1.318591594696045 -3.723665952682495 0.1724710613489151
1.335163950920105 -3.7188174724578857 0.1725146770477295
1.3520609140396118 -3.714833974838257 0.17260192334651947
1.369985818862915 -3.713585615158081 0.17282001674175262
1.3889751434326172 -3.7150590419769287 0.17316897213459015
1.4115427732467651 -3.7257795333862305 0.17395411431789398
1.4295761585235596 -3.7242486476898193 0.17417222261428833
1.4092416763305664 -3.623931884765625 0.16976666450500488
1.385496735572815 -3.5173587799072266 0.1650557667016983
1.3882441520690918 -3.4797306060791016 0.16357271373271942
1.3933093547821045 -3.448629856109619 0.16239498555660248
1.4026691913604736 -3.428647756576538 0.16174069046974182
1.4233508110046387 -3.436339855194092 0.16239498555660248
1.4402625560760498 -3.4347033500671387 0.16261307895183563
1.4513319730758667 -3.419189929962158 0.16217689216136932
1.4674201011657715 -3.415578603744507 0.1623077541589737
1.4839026927947998 -3.4128081798553467 0.16248221695423126
1.4987796545028687 -3.4063010215759277 0.16248221695423126
2.116641044616699 -4.754144191741943 0.22721339762210846
2.139826536178589 -4.75032901763916 0.227475106716156
2.1630191802978516 -4.746401786804199 0.22773683071136475
2.187054395675659 -4.744176864624023 0.22808577120304108
2.211111545562744 -4.741832733154297 0.228434756398201
2.234337329864502 -4.737561225891113 0.22869645059108734
2.25799822807312 -4.734079360961914 0.22900180518627167
2.2808027267456055 -4.7286810874938965 0.22921988368034363
2.304917335510254 -4.725868225097656 0.22956885397434235
2.3290505409240723 -4.722934246063232 0.22991780936717987
2.3527562618255615 -4.718985557556152 0.2302231341600418
2.3778207302093506 -4.717596054077148 0.23065932095050812
2.4024643898010254 -4.7151875495910645 0.23105190694332123
0.0 -0.0 0.0
2.117840051651001 -4.068406581878662 0.2002566158771515
2.1327805519104004 -4.053822040557861 0.19999489188194275
2.15889048576355 -4.0603556632995605 0.20078004896640778
2.1860437393188477 -4.068498134613037 0.2016524374485016
2.2133090496063232 -4.076481342315674 0.2025248259305954
2.2397243976593018 -4.0825514793396 0.20330996811389923
2.266718864440918 -4.08934211730957 0.20413874089717865
2.2938151359558105 -4.095974445343018 0.20496751368045807
2.321012258529663 -4.102447986602783 0.2057962864637375
2.347317695617676 -4.10702657699585 0.20653779804706573
2.374706268310547 -4.113184452056885 0.20736657083034515
2.405212879180908 -4.124359607696533 0.2084570676088333
2.433833599090576 -4.131902694702148 0.20937307178974152
2.4615442752838135 -4.137557029724121 0.21020182967185974
2.4893505573272705 -4.14304780960083 0.21103060245513916
2.51932430267334 -4.151790618896484 0.21203383803367615
2.549422025680542 -4.160351276397705 0.21303710341453552
2.5785903930664062 -4.167028427124023 0.21395310759544373
2.6083946228027344 -4.174376964569092 0.21491272747516632
2.638845205307007 -4.182389259338379 0.2159159779548645
2.669414758682251 -4.190215110778809 0.2169192135334015
2.7001030445098877 -4.1978535652160645 0.21792246401309967
2.7303640842437744 -4.204465389251709 0.21888208389282227
2.7601864337921143 -4.210057258605957 0.21979808807373047
2.7934179306030273 -4.220467567443848 0.2209758311510086
2.8262369632720947 -4.2298359870910645 0.22210991382598877
2.8586325645446777 -4.238170623779297 0.22320041060447693
2.888343095779419 -4.242173671722412 0.22407279908657074
2.9226696491241455 -4.252584457397461 0.22529415786266327
2.9696693420410156 -4.280834674835205 0.227475106716156
3.015824794769287 -4.307118892669678 0.22956885397434235
3.0224807262420654 -4.276785373687744 0.22865283489227295
3.0370516777038574 -4.257863521575928 0.22834749519824982
3.0596868991851807 -4.250247001647949 0.22865283489227295
3.081139087677002 -4.2408976554870605 0.2288709282875061
3.1019768714904785 -4.230636119842529 0.22904542088508606
3.1215953826904297 -4.218667030334473 0.22913265228271484
3.143559455871582 -4.20980978012085 0.2293943613767624
3.1649043560028076 -4.200042724609375 0.22961246967315674
3.186828374862671 -4.190965175628662 0.22987419366836548
3.2093417644500732 -4.182568073272705 0.23017951846122742
3.2300071716308594 -4.171684741973877 0.23035398125648499
3.251254081726074 -4.161488056182861 0.23057208955287933
3.271855115890503 -4.150400638580322 0.2307465821504593
3.2942867279052734 -4.1415581703186035 0.23105190694332123
3.3154523372650146 -4.131040096282959 0.2312699854373932
3.3384757041931152 -4.122745990753174 0.2316189557313919
3.3608572483062744 -4.113555908203125 0.23192429542541504
3.381951093673706 -4.102706432342529 0.232142373919487
3.404930830001831 -4.094056129455566 0.23249134421348572
3.428541421890259 -4.086048126220703 0.23288391530513763
3.4502103328704834 -4.075624942779541 0.23314563930034637
3.4725024700164795 -4.065849781036377 0.2334509640932083
3.4836885929107666 -4.0430908203125 0.2330147922039032
0.0 -0.0 0.0
3.1249284744262695 -3.563361167907715 0.20693038403987885
3.022613286972046 -3.416503429412842 0.19916611909866333
0.0 -0.0 0.0
0.0 -0.0 0.0
0.0 -0.0 0.0
0.0 -0.0 0.0
0.0 -0.0 0.0
0.0 -0.0 0.0
0.0 -0.0 0.0
3.00384259223938 -3.1654465198516846 0.1905294805765152
3.01969838142395 -3.154474973678589 0.19066035747528076
0.0 -0.0 0.0
0.0 -0.0 0.0
0.0 -0.0 0.0
0.0 -0.0 0.0
0.0 -0.0 0.0
0.0 -0.0 0.0
0.0 -0.0 0.0
0.0 -0.0 0.0
0.0 -0.0 0.0
0.0 -0.0 0.0
0.0 -0.0 0.0
0.0 -0.0 0.0
0.0 -0.0 0.0
0.0 -0.0 0.0
0.0 -0.0 0.0
3.4461042881011963 -3.130280017852783 0.20326635241508484
3.469381332397461 -3.1239044666290283 0.2038334161043167
0.0 -0.0 0.0
1.9087516069412231 -1.6887530088424683 0.11127305775880814
1.9123462438583374 -1.6771148443222046 0.11105495691299438
1.9060741662979126 -1.6569569110870361 0.11026981472969055
1.9102585315704346 -1.6460158824920654 0.11009533703327179
1.9234997034072876 -1.6428557634353638 0.11044429242610931
1.935987114906311 -1.6389659643173218 0.11074962466955185
1.9500077962875366 -1.6362828016281128 0.11114220321178436
4.084008693695068 -3.396700859069824 0.23192429542541504
4.094935894012451 -3.37567138671875 0.23170620203018188
4.104984283447266 -3.3539791107177734 0.23144447803497314
4.1149210929870605 -3.332263708114624 0.2311827540397644
4.12552547454834 -3.311150550842285 0.23096466064453125
4.136806964874268 -3.29063081741333 0.23079019784927368
4.144848823547363 -3.267601251602173 0.23044124245643616
4.153555870056152 -3.2451791763305664 0.23013588786125183
1.8539681434631348 -1.435524821281433 0.10237470269203186
1.8554584980010986 -1.4237725734710693 0.10211298614740372
1.8529056310653687 -1.4090112447738647 0.10163317620754242
1.8518550395965576 -1.395501732826233 0.1012405976653099
1.857125997543335 -1.386810541152954 0.10119698196649551
1.8687809705734253 -1.3828539848327637 0.10150232166051865
1.8925217390060425 -1.3876835107803345 0.10246194899082184
1.9801908731460571 -1.4387232065200806 0.10686749964952469
2.1745541095733643 -1.5654881000518799 0.1169872060418129
2.2163374423980713 -1.5809319019317627 0.11886283755302429
2.2313730716705322 -1.5770124197006226 0.1192990317940712
2.236595869064331 -1.566115140914917 0.11921178549528122
5.855188846588135 -4.061976909637451 0.3111371099948883
5.895909786224365 -4.052235126495361 0.31235843896865845
5.9416117668151855 -4.04558801651001 0.31384149193763733
5.984882831573486 -4.036943435668945 0.31519371271133423
6.028191089630127 -4.027997970581055 0.31654590368270874
6.074866771697998 -4.020956516265869 0.3180725872516632
6.119089126586914 -4.011940956115723 0.3194684088230133
6.1633477210998535 -4.002615451812744 0.3208642303943634
2.150996446609497 -1.383598804473877 0.11166563630104065
2.146901845932007 -1.3677586317062378 0.11114220321178436
2.1427104473114014 -1.3519806861877441 0.11061876267194748
2.1401166915893555 -1.3373243808746338 0.11018257588148117
2.1467812061309814 -1.328499436378479 0.11022619903087616
2.1610755920410156 -1.3243398666381836 0.11066239327192307
2.1753742694854736 -1.3200807571411133 0.11109858751296997
2.1896770000457764 -1.3157219886779785 0.11153478175401688
6.367252349853516 -3.7882080078125 0.32348138093948364
9.115911483764648 -5.36981201171875 0.4619293212890625
6.991228103637695 -4.077263355255127 0.35336068272590637
7.006356239318848 -4.045220851898193 0.353229820728302
7.02047061920166 -4.01262903213501 0.35305535793304443
10.74555492401123 -6.079693794250488 0.539048433303833
10.821664810180664 -6.060575485229492 0.5415347218513489
6.765695095062256 -3.750380754470825 0.33774492144584656
5.5242204666137695 -3.030768394470215 0.2751074731349945
5.553195476531982 -3.01521635055542 0.2758926451206207
5.587420463562012 -3.0023064613342285 0.2769395112991333
5.626930236816406 -2.991969347000122 0.2782480716705322
5.662919044494629 -2.9794836044311523 0.2793821692466736
5.702450752258301 -2.968585729598999 0.2806907594203949
5.741106033325195 -2.956941604614258 0.2819557189941406
5.781548023223877 -2.9459240436553955 0.2833079397678375
5.82200288772583 -2.9346094131469727 0.28466013073921204
5.861574172973633 -2.922551393508911 0.28596872091293335
5.904735088348389 -2.9119715690612793 0.28745177388191223
5.946118354797363 -2.9001944065093994 0.28884759545326233
5.990211009979248 -2.889413833618164 0.2903742790222168
6.03251838684082 -2.8774428367614746 0.2918137311935425
6.077545166015625 -2.8664357662200928 0.29338401556015015
6.123495578765869 -2.8555126190185547 0.2949979305267334
6.166744232177734 -2.8429877758026123 0.2964809834957123
6.209090232849121 -2.829725503921509 0.29792043566703796
6.253259181976318 -2.8169679641723633 0.29944708943367004
6.301998138427734 -2.80591082572937 0.30119186639785767
6.349843978881836 -2.794079065322876 0.3028930425643921
6.394041538238525 -2.7802894115448 0.30441972613334656
6.434566974639893 -2.764589309692383 0.30577191710472107
6.464961051940918 -2.7442941665649414 0.3066442906856537
6.483323097229004 -2.718763828277588 0.306949645280838
6.502508163452148 -2.6935081481933594 0.30729860067367554
6.520671844482422 -2.667757987976074 0.3076039254665375
6.5396599769592285 -2.642274856567383 0.307952880859375
6.555766582489014 -2.6155662536621094 0.30817100405693054
6.5745530128479 -2.5898656845092773 0.3085199296474457
6.595101356506348 -2.564775228500366 0.308956116437912
6.610893249511719 -2.537764549255371 0.30917423963546753
6.629377365112305 -2.5117266178131104 0.30952316522598267
6.649631500244141 -2.4862754344940186 0.30995938181877136
6.667914867401123 -2.4600038528442383 0.3103083372116089
6.686095237731934 -2.433619737625122 0.3106572926044464
6.702292442321777 -2.4064488410949707 0.31091898679733276
6.719320774078369 -2.379516124725342 0.3112243413925171
6.740014553070068 -2.3537983894348145 0.311704158782959
6.761556625366211 -2.328270435333252 0.3122275769710541
6.778273105621338 -2.3009934425354004 0.3125329315662384
6.7967753410339355 -2.2742488384246826 0.3129254877567291
6.816122055053711 -2.247699499130249 0.3133617043495178
6.834415435791016 -2.2207157611846924 0.31375426054000854
6.853555202484131 -2.1939198970794678 0.31419047713279724
6.87163782119751 -2.166698455810547 0.31458303332328796
6.889613151550293 -2.1393611431121826 0.3149755895137787
6.908436298370361 -2.1122002601623535 0.3154118061065674
6.92715311050415 -2.08491587638855 0.3158479928970337
6.94672155380249 -2.0577919483184814 0.3163278102874756
6.960429668426514 -2.0288596153259277 0.31654590368270874
6.968255996704102 -1.9981943368911743 0.31650230288505554
8.876903533935547 -2.5036461353302 0.4026941955089569
8.97246265411377 -2.4883854389190674 0.4065327048301697
9.137453079223633 -2.491258382797241 0.41351181268692017
9.261140823364258 -2.481619119644165 0.4186152517795563
3.7118444442749023 -0.9772886037826538 0.16758570075035095
3.725745439529419 -0.963584840297699 0.16802188754081726
3.7231364250183105 -0.9455975890159607 0.16771654784679413
3.7330429553985596 -0.9307935237884521 0.16797825694084167
3.7428910732269287 -0.9159210920333862 0.16823998093605042
3.73616623878479 -0.897015392780304 0.16776016354560852
9.189657211303711 -2.163978338241577 0.41220325231552124
9.142552375793457 -2.1108248233795166 0.4096733033657074
9.126340866088867 -2.0651800632476807 0.40853917598724365
9.086496353149414 -2.0145270824432373 0.4063582122325897
9.018072128295898 -1.958113670349121 0.40291228890419006
9.006009101867676 -1.9143842458724976 0.40199628472328186
8.803004264831543 -1.8311229944229126 0.3925744891166687
8.711053848266602 -1.7723782062530518 0.38812533020973206
8.640316009521484 -1.7187591791152954 0.3846357762813568
8.594776153564453 -1.670747995376587 0.3822803497314453
8.610817909240723 -1.6349074840545654 0.38267290592193604
8.673861503601074 -1.6076984405517578 0.3851592242717743
8.734864234924316 -1.579614281654358 0.387558251619339
8.732818603515625 -1.5399248600006104 0.38716569542884827
8.6478853225708 -1.4860707521438599 0.38310906291007996
4.2064385414123535 -0.703961193561554 0.18621116876602173
4.214400768280029 -0.6864035129547119 0.18642926216125488
4.206501007080078 -0.6662889122962952 0.185949444770813
4.208380699157715 -0.6477763056755066 0.1859058290719986
4.221048355102539 -0.6308844685554504 0.1863420307636261
8.623510360717773 -1.2504404783248901 0.3804483115673065
8.620970726013184 -1.2116892337799072 0.380099356174469
8.615285873413086 -1.1725795269012451 0.3796195387840271
8.596549034118652 -1.1318473815917969 0.3785727024078369
8.572665214538574 -1.0906705856323242 0.3773077130317688
8.57734203338623 -1.0532549619674683 0.3773077130317688
8.608642578125 -1.0189900398254395 0.37848541140556335
8.637823104858398 -0.9842459559440613 0.3795759379863739
8.828740119934082 -0.9669965505599976 0.38777637481689453
9.089218139648438 -0.9554101228713989 0.3990301787853241
9.106222152709961 -0.9170432686805725 0.3995972275733948
9.103175163269043 -0.876630961894989 0.39929187297821045
9.091991424560547 -0.8355313539505005 0.3986376225948334
9.024888038635254 -0.7896693348884583 0.39554062485694885
8.888861656188965 -0.7386999130249023 0.389433890581131
8.701769828796387 -0.6849346160888672 0.381102591753006
8.589104652404785 -0.6383700370788574 0.37604275345802307
3.299788475036621 -0.23077797889709473 0.14442379772663116
3.3007640838623047 -0.21637779474258423 0.14442379772663116
3.2927021980285645 -0.2014244645833969 0.14403121173381805
3.2945473194122314 -0.18711212277412415 0.14407484233379364
3.307304620742798 -0.17336277663707733 0.14459827542304993
3.311023235321045 -0.15907415747642517 0.1447291225194931
5.465579032897949 -0.23868893086910248 0.23885977268218994
5.612316608428955 -0.22056661546230316 0.24522820115089417
5.5952534675598145 -0.19544845819473267 0.24444304406642914
8.600787162780762 -0.2628667652606964 0.37569382786750793
8.731682777404785 -0.2287374585866928 0.38136428594589233
8.799519538879395 -0.19209718704223633 0.3842868208885193
8.986067771911621 -0.15694530308246613 0.39240002632141113
9.011641502380371 -0.11806201189756393 0.3934905230998993
9.007076263427734 -0.07869666814804077 0.39327242970466614
9.000340461730957 -0.03936467692255974 0.3929671049118042
8.996429443359375 -9.299383236793801e-05 0.39279258251190186
8.985355377197266 0.039113376289606094 0.39231279492378235
8.969115257263184 0.07817956060171127 0.3916148841381073
3.7730824947357178 0.04935334622859955 0.16475042700767517
3.7818214893341064 0.06597282737493515 0.16514301300048828
3.7775020599365234 0.082386314868927 0.16496852040290833
3.7781054973602295 0.09889408946037292 0.1650121510028839
3.7826309204101562 0.11553067713975906 0.16523024439811707
5.4325127601623535 0.18965129554271698 0.23733310401439667
5.548431396484375 0.217941015958786 0.24243655800819397
0.0 0.0 0.0
0.0 0.0 0.0
0.0 0.0 0.0
0.0 0.0 0.0
0.0 0.0 0.0
0.0 0.0 0.0
0.0 0.0 0.0
8.818268775939941 0.6552188992500305 0.3860752284526825
8.889026641845703 0.6994890570640564 0.3893030285835266
8.867968559265137 0.7367790341377258 0.38851791620254517
8.872631072998047 0.7761621475219727 0.3888668417930603
8.878114700317383 0.8156914710998535 0.3892594277858734
6.752314567565918 0.6501033902168274 0.29617565870285034
6.753389358520508 0.6799599528312683 0.2963501214981079
6.7503581047058105 0.7094205617904663 0.2963501214981079
6.745212554931641 0.7386502027511597 0.2962628901004791
6.741925239562988 0.768074631690979 0.2962628901004791
6.734540939331055 0.7970147132873535 0.29608839750289917
6.726041793823242 0.8257833123207092 0.2958703339099884
6.7194013595581055 0.854745090007782 0.29573944211006165
6.713626861572266 0.8837950229644775 0.29565221071243286
