# .PCD v0.7 - Point Cloud Data file format
VERSION 0.7
FIELDS x y z
SIZE 4 4 4
TYPE F F F
COUNT 1 1 1
WIDTH 1001
HEIGHT 1
VIEWPOINT 0 0 0 1 0 0 0
POINTS 1001
DATA ascii
2.6727521419525146 1.2180110216140747 -0.12824100255966187
2.658339262008667 1.2254788875579834 -0.12780480086803436
2.6439123153686523 1.232844352722168 -0.12736861407756805
2.637604236602783 1.2439427375793457 -0.12732499837875366
2.6420705318450928 1.2601704597473145 -0.12780480086803436
2.6491448879241943 1.2777632474899292 -0.12841548025608063
2.6453402042388916 1.2901859283447266 -0.1285027116537094
2.6369974613189697 1.3003904819488525 -0.12837186455726624
2.625039577484131 1.3087637424468994 -0.1280665248632431
2.6130590438842773 1.317057490348816 -0.12776118516921997
2.6099579334259033 1.3298072814941406 -0.12789204716682434
2.6103482246398926 1.344384789466858 -0.12819738686084747
2.608001947402954 1.3576068878173828 -0.12837186455726624
2.5994009971618652 1.3675780296325684 -0.12824100255966187
2.5898804664611816 1.377030849456787 -0.1280665248632431
2.5864877700805664 1.3897368907928467 -0.12819738686084747
2.5742533206939697 1.397672414779663 -0.12789204716682434
2.5593714714050293 1.4040861129760742 -0.12745586037635803
2.5471041202545166 1.4118497371673584 -0.1271505206823349
2.532202959060669 1.418068528175354 -0.1267143338918686
2.5268607139587402 1.429595708847046 -0.12675794959068298
2.5214662551879883 1.4411031007766724 -0.12680156528949738
2.518615245819092 1.4540894031524658 -0.12697604298591614
2.5226027965545654 1.471104383468628 -0.12749947607517242
2.5256290435791016 1.4876748323440552 -0.12797929346561432
2.5225484371185303 1.500723958015442 -0.12815377116203308
2.5116941928863525 1.509143352508545 -0.12793566286563873
2.4991068840026855 1.5164604187011719 -0.1276303380727768
2.4865033626556396 1.5236963033676147 -0.12732499837875366
2.4713358879089355 1.5292741060256958 -0.12688879668712616
2.457014560699463 1.535278081893921 -0.12649622559547424
2.451137065887451 1.5465171337127686 -0.12653984129428864
2.4485790729522705 1.559881329536438 -0.12675794959068298
2.4409093856811523 1.5700099468231201 -0.1267143338918686
2.4340357780456543 1.5806454420089722 -0.1267143338918686
2.4271156787872314 1.5912507772445679 -0.1267143338918686
2.420982599258423 1.60237717628479 -0.12675794959068298
2.413137197494507 1.6123703718185425 -0.1267143338918686
2.406907320022583 1.6234427690505981 -0.12675794959068298
2.3956716060638428 1.6311180591583252 -0.12653984129428864
2.390178680419922 1.6426873207092285 -0.1266270875930786
2.3911969661712646 1.6587951183319092 -0.12706327438354492
2.4019408226013184 1.6818193197250366 -0.1280229091644287
2.4092655181884766 1.7026622295379639 -0.12880805134773254
2.3904263973236084 1.7050364017486572 -0.12819738686084747
2.3626937866210938 1.7008579969406128 -0.12710689008235931
2.3495922088623047 1.7070404291152954 -0.12680156528949738
2.343733072280884 1.7184576988220215 -0.12688879668712616
2.33540940284729 1.7280734777450562 -0.12684518098831177
2.3270466327667236 1.7376492023468018 -0.12680156528949738
2.3202404975891113 1.7483875751495361 -0.12684518098831177
2.3117942810058594 1.757889986038208 -0.12680156528949738
2.300931930541992 1.765527606010437 -0.1266270875930786
2.2868869304656982 1.7706575393676758 -0.1262781322002411
2.272841215133667 1.7756984233856201 -0.12592917680740356
2.2650716304779053 1.7855985164642334 -0.12592917680740356
2.252567768096924 1.7917331457138062 -0.12566745281219482
2.2369370460510254 1.795291543006897 -0.12523126602172852
2.215883255004883 1.794346809387207 -0.12448973208665848
2.1747653484344482 1.776818037033081 -0.12261410057544708
2.1446359157562256 1.7678618431091309 -0.12134913355112076
2.140742540359497 1.780396819114685 -0.1215672418475151
2.1559135913848877 1.808985710144043 -0.12287581712007523
2.1746878623962402 1.8409677743911743 -0.1244025006890297
2.1772701740264893 1.8595225811004639 -0.12501317262649536
2.172919988632202 1.8722654581069946 -0.12523126602172852
2.1654841899871826 1.882384181022644 -0.1252748817205429
2.1647613048553467 1.8984019756317139 -0.1257110834121704
2.1699259281158447 1.9197449684143066 -0.12649622559547424
2.171963691711426 1.9385080337524414 -0.12710689008235931
2.1820461750030518 1.9646787643432617 -0.12819738686084747
2.169755220413208 1.9708223342895508 -0.12797929346561432
2.1338815689086914 1.9552979469299316 -0.12636536359786987
2.1113908290863037 1.9517053365707397 -0.12553659081459045
2.10066294670105 1.958855390548706 -0.12540574371814728
2.0920960903167725 1.9680025577545166 -0.12540574371814728
2.085663080215454 1.9791752099990845 -0.12553659081459045
2.080615997314453 1.9917110204696655 -0.1257546991109848
2.0640006065368652 1.9931365251541138 -0.1252748817205429
1.9193148612976074 1.8696708679199219 -0.1169872060418129
1.7686227560043335 1.737980842590332 -0.10826332122087479
1.7354800701141357 1.7203612327575684 -0.10669302195310593
1.7851788997650146 1.78513765335083 -0.11022619903087616
1.9975223541259766 2.014983892440796 -0.12387906759977341
2.0251243114471436 2.0607337951660156 -0.12614727020263672
2.018204927444458 2.071697235107422 -0.1262781322002411
2.009840250015259 2.0812020301818848 -0.12632174789905548
2.0055761337280273 2.095003366470337 -0.1266270875930786
2.002605438232422 2.1102564334869385 -0.12701965868473053
1.9844797849655151 2.1095144748687744 -0.12645260989665985
1.9548157453536987 2.09623384475708 -0.12514403462409973
1.9368345737457275 2.0952064990997314 -0.12457697838544846
1.9269990921020508 2.102900743484497 -0.12453334778547287
1.9178051948547363 2.1112887859344482 -0.12453334778547287
1.902558445930481 2.11295485496521 -0.12414078414440155
1.88666832447052 2.1137828826904297 -0.12370458990335464
1.8701452016830444 2.1137640476226807 -0.12322477251291275
1.8589283227920532 2.1196506023406982 -0.12309391051530838
1.8476958274841309 2.1254796981811523 -0.1229630634188652
1.83449125289917 2.1289803981781006 -0.12270134687423706
1.8232377767562866 2.1346852779388428 -0.12257048487663269
1.816488265991211 2.1456704139709473 -0.12274496257305145
1.8141728639602661 2.161994218826294 -0.12322477251291275
1.8079164028167725 2.17372989654541 -0.1234428733587265
1.797143578529358 2.180055856704712 -0.12335562705993652
1.778132677078247 2.176271915435791 -0.12270134687423706
1.7598176002502441 2.173139810562134 -0.1220906674861908
1.7471922636032104 2.1769020557403564 -0.12187257409095764
1.711556077003479 2.1516671180725098 -0.12004055827856064
1.671844244003296 2.120671033859253 -0.1179032027721405
1.6318209171295166 2.088582754135132 -0.11572223901748657
1.2979092597961426 1.6762306690216064 -0.09256035089492798
1.2747701406478882 1.6612704992294312 -0.09142624586820602
1.2687187194824219 1.6684072017669678 -0.09151347726583481
0.0 0.0 -0.0
1.6946638822555542 2.269371747970581 -0.12366096675395966
1.691282868385315 2.285578489303589 -0.12414078414440155
1.6771588325500488 2.2872965335845947 -0.12383545190095901
1.6636393070220947 2.289743185043335 -0.12357372790575027
1.6466282606124878 2.2872507572174072 -0.12305029481649399
1.6354724168777466 2.2927873134613037 -0.1229630634188652
1.6294889450073242 2.305612325668335 -0.12326839566230774
1.6194133758544922 2.3127002716064453 -0.12326839566230774
1.6081680059432983 2.3181025981903076 -0.12318115681409836
1.601433515548706 2.3300373554229736 -0.1234428733587265
1.596312165260315 2.344434976577759 -0.12383545190095901
1.5944474935531616 2.3638012409210205 -0.12448973208665848
1.595219373703003 2.3873491287231445 -0.12536212801933289
1.5897504091262817 2.401784658432007 -0.1257546991109848
1.5770645141601562 2.4053564071655273 -0.12558022141456604
1.5475095510482788 2.38288950920105 -0.12405353784561157
1.4457581043243408 2.24761962890625 -0.11668186634778976
1.3559540510177612 2.128361940383911 -0.11018257588148117
1.3301279544830322 2.1080658435821533 -0.10883037745952606
1.3436825275421143 2.150280475616455 -0.11070600897073746
1.4347007274627686 2.3183844089508057 -0.11903730779886246
1.474684476852417 2.4063971042633057 -0.12322477251291275
1.4734998941421509 2.428182363510132 -0.12400992214679718
1.4546581506729126 2.420886993408203 -0.12331201136112213
1.3608179092407227 2.287261962890625 -0.11620204895734787
1.236228108406067 2.0986368656158447 -0.106344074010849
1.2039072513580322 2.06431245803833 -0.10433758050203323
1.2148699760437012 2.1041533946990967 -0.10608235746622086
1.337052583694458 2.3392863273620605 -0.11764148622751236
1.392756462097168 2.461613893508911 -0.1234864890575409
1.385907769203186 2.4746408462524414 -0.12383545190095901
1.3542695045471191 2.443091630935669 -0.12195981293916702
0.879392683506012 1.6028714179992676 -0.07982347905635834
0.868100106716156 1.598791480064392 -0.07943090796470642
0.8578057289123535 1.5964038372039795 -0.07912557572126389
0.8517700433731079 1.6018955707550049 -0.07921281456947327
0.8480286598205566 1.6117857694625854 -0.0795181468129158
1.3069220781326294 2.510493040084839 -0.12357372790575027
1.2858916521072388 2.496631622314453 -0.12261410057544708
1.2668216228485107 2.4861960411071777 -0.12182895839214325
1.2559616565704346 2.4916999340057373 -0.12182895839214325
1.2517644166946411 2.5105671882629395 -0.12248323857784271
1.2487521171569824 2.5321335792541504 -0.12326839566230774
1.2429473400115967 2.548333168029785 -0.12379182130098343
1.2348546981811523 2.5600311756134033 -0.12409715354442596
1.2288341522216797 2.5762155055999756 -0.12462059408426285
1.2197126150131226 2.5860707759857178 -0.1248386949300766
1.2079949378967285 2.5904624462127686 -0.12479507178068161
1.1975171566009521 2.5975232124328613 -0.12488231062889099
1.1472266912460327 2.5172691345214844 -0.12078208476305008
0.9458343386650085 2.0995984077453613 -0.10054268687963486
0.9130952954292297 2.0507707595825195 -0.098012775182724
0.9162096977233887 2.0821683406829834 -0.09932135045528412
1.04854154586792 2.411390781402588 -0.11480623483657837
1.1488308906555176 2.6738758087158203 -0.12706327438354492
1.1445701122283936 2.696335792541504 -0.12789204716682434
0.6510090827941895 1.5524208545684814 -0.0734986662864685
0.6438469290733337 1.554323673248291 -0.07345505058765411
0.6351673007011414 1.5524948835372925 -0.07323695719242096
0.628013014793396 1.5543252229690552 -0.07319333404302597
0.6271485686302185 1.5718973875045776 -0.07389124482870102
0.6217485666275024 1.5783368349075317 -0.07406572252511978
1.0540904998779297 2.7104783058166504 -0.12697604298591614
1.0433279275894165 2.7178497314453125 -0.12710689008235931
1.027565598487854 2.712099552154541 -0.1266270875930786
1.0136228799819946 2.710942506790161 -0.12636536359786987
0.9879526495933533 2.6778478622436523 -0.12462059408426285
0.9396963119506836 2.5816822052001953 -0.11995332688093185
0.9088414907455444 2.531221866607666 -0.1174233928322792
0.8891172409057617 2.5106780529022217 -0.11628928780555725
0.8672841191291809 2.4834084510803223 -0.11484985053539276
0.8515609502792358 2.4729998111724854 -0.1141955554485321
0.8536083698272705 2.5145328044891357 -0.11594033986330032
0.8889129161834717 2.6565561294555664 -0.12230876833200455
0.9079753160476685 2.7533910274505615 -0.12658347189426422
0.9015100598335266 2.7744290828704834 -0.12736861407756805
0.8906142115592957 2.782142162322998 -0.12754309177398682
0.8781660199165344 2.7850489616394043 -0.12749947607517242
0.0 0.0 -0.0
0.6236485242843628 2.0397584438323975 -0.09312739223241806
0.606392502784729 2.0147175788879395 -0.09186244010925293
0.5978796482086182 2.0183019638061523 -0.09190605580806732
0.5862718224525452 2.0113000869750977 -0.09146986156702042
0.568953275680542 1.9840683937072754 -0.09011765569448471
0.5562228560447693 1.9721089601516724 -0.08946336805820465
0.5473456978797913 1.9735544919967651 -0.08941975235939026
0.542934000492096 1.991345763206482 -0.09011765569448471
0.0 0.0 -0.0
0.7455690503120422 2.8317031860351562 -0.12784843146800995
0.7332064509391785 2.8349294662475586 -0.12784843146800995
0.721321702003479 2.8400380611419678 -0.12793566286563873
0.7098897695541382 2.8470358848571777 -0.1281101405620575
0.6929486393928528 2.8316686153411865 -0.12728138267993927
0.6381374001502991 2.657862901687622 -0.11934264749288559
0.5901239514350891 2.506002426147461 -0.11240716278553009
0.5740146040916443 2.4861643314361572 -0.1114039197564125
0.5755094289779663 2.543212413787842 -0.11384660750627518
0.554459810256958 2.5008325576782227 -0.11184011399745941
0.5284913182258606 2.433910608291626 -0.10874313116073608
0.5186973810195923 2.4401025772094727 -0.10891761630773544
0.5290022492408752 2.543087959289551 -0.11341041326522827
0.5788539052009583 2.844942331314087 -0.12675794959068298
0.5750115513801575 2.890554428100586 -0.12867718935012817
0.5637282729148865 2.8999009132385254 -0.1289825439453125
0.5506970882415771 2.900369882583618 -0.12889529764652252
0.5362159609794617 2.8929219245910645 -0.12845909595489502
0.5198546051979065 2.87458872795105 -0.12754309177398682
0.5050515532493591 2.864039421081543 -0.12697604298591614
0.49525734782218933 2.881969451904297 -0.1276739537715912
0.4861408472061157 2.9047956466674805 -0.1285899579524994
0.47474658489227295 2.9147775173187256 -0.12893891334533691
0.4595232605934143 2.9010331630706787 -0.12824100255966187
0.22647030651569366 1.471253752708435 -0.06499288976192474
0.22034400701522827 1.4742040634155273 -0.06508012861013412
0.2133360505104065 1.4711965322494507 -0.06490565091371536
0.20747099816799164 1.476070761680603 -0.06508012861013412
0.20116323232650757 1.4779517650604248 -0.06512374430894852
0.3938593864440918 2.9913079738616943 -0.1317305564880371
0.3801732361316681 2.9880425930023193 -0.13151246309280396
0.3674972355365753 2.992647647857666 -0.13164331018924713
0.35478827357292175 2.997199058532715 -0.1317741721868515
0.3415941596031189 2.9977262020111084 -0.1317305564880371
0.3289460837841034 3.0031604766845703 -0.13190503418445587
0.2019951343536377 1.9215717315673828 -0.08435989916324615
0.19481012225151062 1.9343630075454712 -0.08488333225250244
0.18588924407958984 1.9302223920822144 -0.08466523140668869
0.17773966491222382 1.9339996576309204 -0.08479609340429306
0.17060570418834686 1.9496854543685913 -0.08545038104057312
0.25170964002609253 3.028662919998169 -0.1326901763677597
0.14911650121212006 1.8943297863006592 -0.08296407759189606
0.14107175171375275 1.897951364517212 -0.08309493958950043
0.13313764333724976 1.9035319089889526 -0.08331303298473358
0.12973244488239288 1.9788628816604614 -0.08658448606729507
0.14501121640205383 2.3703060150146484 -0.10368328541517258
0.15438324213027954 2.7180256843566895 -0.11886283755302429
0.1390703320503235 2.6528265476226807 -0.11598395556211472
0.11454799771308899 2.3839759826660156 -0.10420672595500946
0.10292431712150574 2.35650634765625 -0.10298537462949753
0.09774219244718552 2.4867091178894043 -0.1086558997631073
0.09819280356168747 2.8106062412261963 -0.12278857827186584
0.08656942844390869 2.8319783210754395 -0.12370458990335464
0.07667163759469986 2.9262070655822754 -0.12780480086803436
0.06641117483377457 3.041376829147339 -0.13282103836536407
0.0536637008190155 3.0716047286987305 -0.1341296136379242
0.04031328111886978 3.0758056640625 -0.13430410623550415
0.013022536411881447 1.489524006843567 -0.06503650546073914
0.006540695670992136 1.493562936782837 -0.0652109906077385
2.3761351258144714e-05 1.4915790557861328 -0.06512374430894852
-0.006510482169687748 1.4975591897964478 -0.06538546085357666
-0.013114315457642078 1.5055086612701416 -0.06573441624641418
-0.019709276035428047 1.5074349641799927 -0.06582165509462357
-0.05394907668232918 3.0935821533203125 -0.13508924841880798
-0.06749030202627182 3.0953149795532227 -0.13517649471759796
-0.08115221560001373 3.1009833812713623 -0.1354382038116455
-0.09504783153533936 3.1125826835632324 -0.1359616369009018
-0.10925531387329102 3.130110263824463 -0.13674679398536682
-0.07566820830106735 1.9266778230667114 -0.08418542146682739
-0.08429194241762161 1.9313198328018188 -0.08440351486206055
-0.09276595711708069 1.9319316148757935 -0.08444713801145554
-0.10506261140108109 2.0053365230560303 -0.08767496794462204
-0.0 0.0 -0.0
-0.0 0.0 -0.0
-0.15710574388504028 2.397569417953491 -0.10490463674068451
-0.16408182680606842 2.3470301628112793 -0.10272365808486938
-0.1702498346567154 2.2914953231811523 -0.1003246009349823
-0.1562660187482834 1.9859638214111328 -0.08697705715894699
-0.1579819619655609 1.901631236076355 -0.08331303298473358
-0.16523313522338867 1.888980746269226 -0.0827895998954773
-0.1732909381389618 1.8862521648406982 -0.08270236104726791
-0.3051174581050873 3.169313430786133 -0.13901498913764954
-0.31834274530410767 3.161987781524658 -0.138753280043602
-0.33161428570747375 3.1556007862091064 -0.13853517174720764
-0.34548866748809814 3.1551167964935303 -0.13857878744602203
-0.3597043752670288 3.157550096511841 -0.138753280043602
-0.37371304631233215 3.1579346656799316 -0.13884051144123077
-0.3877319395542145 3.158257246017456 -0.13892775774002075
-0.4012564718723297 3.154553174972534 -0.13884051144123077
-0.4141041934490204 3.145838737487793 -0.13853517174720764
-0.4276917278766632 3.143012285232544 -0.13849155604839325
-0.44140151143074036 3.141116142272949 -0.13849155604839325
-0.4561062753200531 3.1460812091827393 -0.13879689574241638
-0.4724869430065155 3.16184663772583 -0.13958203792572021
-0.48749420046806335 3.167654514312744 -0.13993100821971893
-0.5019360184669495 3.1694440841674805 -0.1401054710149765
-0.5184901356697083 3.1839869022369385 -0.14084699749946594
-0.53682941198349 3.208298444747925 -0.14202472567558289
-0.5533605813980103 3.2206950187683105 -0.14267902076244354
-0.5648061633110046 3.203491687774658 -0.14202472567558289
-0.5686463713645935 3.1449599266052246 -0.13953842222690582
-0.04278067499399185 0.23084571957588196 -0.010250556282699108
-0.04304219409823418 0.22673077881336212 -0.010076078586280346
-0.044602908194065094 0.22948290407657623 -0.010206936858594418
-0.0469679981470108 0.23614509403705597 -0.010512272827327251
-0.04799791797995567 0.2359379082918167 -0.010512272827327251
-0.048620063811540604 0.23377001285552979 -0.01042503397911787
-0.05067808926105499 0.23844173550605774 -0.010643131099641323
-0.05002232640981674 0.23040790855884552 -0.010294175706803799
-0.0490812323987484 0.22140911221504211 -0.009901601821184158
-0.05070824548602104 0.22411610186100006 -0.010032459162175655
-0.051910366863012314 0.22486616671085358 -0.010076078586280346
-0.050601374357938766 0.21491296589374542 -0.009639885276556015
-0.0531710647046566 0.2214902639389038 -0.009945221245288849
-0.05389953777194023 0.22028572857379913 -0.009901601821184158
-0.0522017702460289 0.20938532054424286 -0.009421788156032562
-0.05631161108613014 0.2217436134815216 -0.00998884066939354
-0.05852923169732094 0.22633196413516998 -0.010206936858594418
-0.05951622501015663 0.2260744273662567 -0.010206936858594418
-0.06360474973917007 0.23739270865917206 -0.01073036901652813
-0.06542825698852539 0.2400045543909073 -0.010861228220164776
-0.06487303972244263 0.2339404821395874 -0.010599511675536633
-0.06507967412471771 0.2307705581188202 -0.010468653403222561
-0.06415846198797226 0.22376194596290588 -0.010163317434489727
-0.06485464423894882 0.22252072393894196 -0.010119698010385036
-0.06695985794067383 0.22606727480888367 -0.010294175706803799
-0.06823352724313736 0.2267296314239502 -0.01033779513090849
-0.07039047032594681 0.23025134205818176 -0.010512272827327251
-0.07198693603277206 0.2318502515554428 -0.010599511675536633
-0.07329828292131424 0.232486754655838 -0.010643131099641323
-0.07492110133171082 0.23406770825386047 -0.01073036901652813
-0.07439815998077393 0.22898779809474945 -0.010512272827327251
-0.07164240628480911 0.21727539598941803 -0.00998884066939354
-0.0703708603978157 0.21032874286174774 -0.009683504700660706
-0.0735357329249382 0.21664193272590637 -0.00998884066939354
-0.0741550549864769 0.21537438035011292 -0.009945221245288849
-0.07180049270391464 0.2056168168783188 -0.009509027004241943
-0.0726969763636589 0.20530156791210175 -0.009509027004241943
-0.0759551152586937 0.21156442165374756 -0.009814362041652203
-0.07824422419071198 0.21498622000217438 -0.00998884066939354
-0.07918152213096619 0.21464276313781738 -0.00998884066939354
-0.07871788740158081 0.21055208146572113 -0.009814362041652203
-0.08069764822721481 0.21300935745239258 -0.009945221245288849
-0.08449038118124008 0.22011680901050568 -0.010294175706803799
-0.0 0.0 -0.0
-0.0 0.0 -0.0
-0.0 0.0 -0.0
-0.0 0.0 -0.0
-0.0 0.0 -0.0
-0.0 0.0 -0.0
-0.0 0.0 -0.0
-0.0 0.0 -0.0
-0.0 0.0 -0.0
-0.0 0.0 -0.0
-0.0 0.0 -0.0
-0.0 0.0 -0.0
-0.0 0.0 -0.0
-0.0 0.0 -0.0
-0.0 0.0 -0.0
-0.0 0.0 -0.0
-0.0 0.0 -0.0
-0.0 0.0 -0.0
-0.0 0.0 -0.0
-0.0 0.0 -0.0
-0.0 0.0 -0.0
-0.0 0.0 -0.0
-0.0 0.0 -0.0
-0.0 0.0 -0.0
-0.0 0.0 -0.0
-1.1038734912872314 2.120617151260376 -0.10438119620084763
-0.0 0.0 -0.0
-0.0 0.0 -0.0
-0.0 0.0 -0.0
-0.0 0.0 -0.0
-0.0 0.0 -0.0
-0.0 0.0 -0.0
-0.0 0.0 -0.0
-0.0 0.0 -0.0
-0.0 0.0 -0.0
-0.0 0.0 -0.0
-0.0 0.0 -0.0
-0.0 0.0 -0.0
-0.0 0.0 -0.0
-0.0 0.0 -0.0
-0.0 0.0 -0.0
-0.0 0.0 -0.0
-0.0 0.0 -0.0
-0.0 0.0 -0.0
-1.0571186542510986 1.6755021810531616 -0.0864972472190857
-1.0773018598556519 1.691096305847168 -0.08754412084817886
-1.0862915515899658 1.688900113105774 -0.08767496794462204
-0.0 0.0 -0.0
-1.6136876344680786 2.4613852500915527 -0.1285027116537094
-1.6856168508529663 2.546794891357422 -0.13334447145462036
-1.923163652420044 2.8783371448516846 -0.1511411815881729
-1.9412908554077148 2.8782010078430176 -0.15157736837863922
-1.9229066371917725 2.8242833614349365 -0.14917831122875214
-1.991230845451355 2.8973782062530518 -0.1534966230392456
-2.097811460494995 3.024106979370117 -0.16069383919239044
-2.145367383956909 3.064027786254883 -0.16331098973751068
-2.1529502868652344 3.0464789867401123 -0.16287480294704437
-2.1592609882354736 3.0272958278656006 -0.16235136985778809
-0.0 0.0 -0.0
-1.1344900131225586 1.56155526638031 -0.08427266031503677
-1.1430649757385254 1.5590072870254517 -0.08440351486206055
-1.1534219980239868 1.558823585510254 -0.08466523140668869
-1.5182585716247559 2.0332772731781006 -0.11079324781894684
-1.5319256782531738 2.0330164432525635 -0.11114220321178436
-0.0 0.0 -0.0
-1.8342303037643433 2.390512228012085 -0.13155607879161835
-1.8299646377563477 2.363527536392212 -0.13050921261310577
-1.696950912475586 2.172085762023926 -0.12034589052200317
-1.5703444480895996 1.992052674293518 -0.11074962466955185
-1.5728023052215576 1.977363109588623 -0.11031343042850494
-0.0 0.0 -0.0
-2.286604404449463 2.8238346576690674 -0.1586437076330185
-1.9190189838409424 2.3488564491271973 -0.13242846727371216
-1.9222593307495117 2.3319807052612305 -0.13194864988327026
-0.0 0.0 -0.0
-2.3419601917266846 2.791151285171509 -0.159079909324646
-0.15169107913970947 0.1791919320821762 -0.010250556282699108
-0.17842410504817963 0.20891615748405457 -0.011995331384241581
-0.20020191371440887 0.23235508799552917 -0.013391152024269104
-0.21170055866241455 0.24354340136051178 -0.014089062809944153
-0.22330044209957123 0.2546355724334717 -0.014786972664296627
-0.22904318571090698 0.2588966190814972 -0.015092308633029461
-0.228840172290802 0.2564040422439575 -0.01500506978482008
-0.2272828370332718 0.25243330001831055 -0.014830592088401318
-0.22972553968429565 0.2529182434082031 -0.014917830936610699
-0.23150184750556946 0.25265008211135864 -0.01496145036071539
-0.23260203003883362 0.2516375780105591 -0.01496145036071539
-0.2343791127204895 0.25135093927383423 -0.01500506978482008
-0.23342005908489227 0.248142808675766 -0.014874211512506008
-0.23174981772899628 0.24422317743301392 -0.014699733816087246
-0.23281322419643402 0.24320966005325317 -0.014699733816087246
-0.23664812743663788 0.24506619572639465 -0.014874211512506008
-0.23562383651733398 0.24188441038131714 -0.014743354171514511
-0.2331758439540863 0.23729105293750763 -0.014525256119668484
-0.2320990115404129 0.23414282500743866 -0.014394397847354412
-0.23382486402988434 0.23383434116840363 -0.014438018202781677
-0.2369713932275772 0.23492193222045898 -0.014568876475095749
-0.23870672285556793 0.2345859706401825 -0.014612494967877865
-0.2404436469078064 0.2342393696308136 -0.01465611532330513
-0.24146340787410736 0.23318800330162048 -0.01465611532330513
-0.24247857928276062 0.2321322113275528 -0.01465611532330513
-0.23841643333435059 0.22625799477100372 -0.014350779354572296
-0.2379460632801056 0.2238464653491974 -0.014263540506362915
-0.23892050981521606 0.22280611097812653 -0.014263540506362915
-0.23475511372089386 0.21701431274414062 -0.013958204537630081
-0.23643635213375092 0.2166629135608673 -0.014001823961734772
-0.2182340919971466 -0.19997470080852509 0.0
-0.2122192084789276 -0.19617341458797455 0.0
-0.20258499681949615 -0.18891353905200958 0.0
-0.20467226207256317 -0.19253641366958618 0.0
-0.20528097450733185 -0.1948043406009674 0.0
-0.2073184847831726 -0.19846422970294952 0.0
-0.20501188933849335 -0.19797761738300323 0.0
-0.1976993829011917 -0.1925901472568512 0.0
-0.1947174072265625 -0.19134819507598877 0.0
-0.19032973051071167 -0.1886759102344513 0.0
-0.19374731183052063 -0.19374722242355347 0.0
-0.1950121372938156 -0.19672130048274994 0.0
-0.18784373998641968 -0.19115106761455536 0.0
-0.18282118439674377 -0.18767106533050537 0.0
-0.17922192811965942 -0.18558961153030396 0.0
-0.17426136136054993 -0.1820356547832489 0.0
-0.16933530569076538 -0.17844203114509583 0.0
-0.1671847403049469 -0.17772245407104492 0.0
-0.16436168551445007 -0.1762561798095703 0.0
-0.16223347187042236 -0.17550301551818848 0.0
-0.1628173291683197 -0.1776837706565857 0.0
-0.16204050183296204 -0.17839249968528748 0.0
-0.15925318002700806 -0.17686837911605835 0.0
-0.15981170535087585 -0.17905369400978088 0.0
-0.15969154238700867 -0.18049824237823486 0.0
-0.1582431197166443 -0.1804414689540863 0.0
-0.15745428204536438 -0.18113020062446594 0.0
-0.15862074494361877 -0.18408820033073425 0.0
-0.15586766600608826 -0.18249733746051788 0.0
-0.15377764403820038 -0.18164922297000885 0.0
-0.1523408144712448 -0.1815524399280548 0.0
-0.1509077548980713 -0.18144656717777252 0.0
-0.15075069665908813 -0.1828749179840088 0.0
-0.15058402717113495 -0.1843053251504898 0.0
-0.15040773153305054 -0.1857377588748932 0.0
-0.1502217948436737 -0.18717215955257416 0.0
-0.15002620220184326 -0.18860843777656555 0.0
-0.14920182526111603 -0.18926125764846802 0.0
-0.14714327454566956 -0.18833443522453308 0.0
-0.14632011950016022 -0.18897467851638794 0.0
-0.1461029350757599 -0.19040466845035553 0.0
-0.14587604999542236 -0.19183634221553802 0.0
-0.1444358080625534 -0.19167238473892212 0.0
-0.1429997831583023 -0.1914995163679123 0.0
-0.1445421576499939 -0.19533707201480865 0.0
-0.1478276401758194 -0.2016109824180603 0.0
-0.14870990812778473 -0.2046811431646347 0.0
-0.14372564852237701 -0.19964703917503357 0.0
-0.14285317063331604 -0.20027224719524384 0.0
-0.13966938853263855 -0.19762709736824036 0.0
-0.13364355266094208 -0.1908622682094574 0.0
-0.13451948761940002 -0.19390852749347687 0.0
-0.1376369744539261 -0.20026250183582306 0.0
-0.13732467591762543 -0.2016877382993698 0.0
-0.13476575911045074 -0.1997978836297989 0.0
-0.13500384986400604 -0.2020469456911087 0.0
-0.1319132149219513 -0.19929853081703186 0.0
-0.12884919345378876 -0.19652707874774933 0.0
-0.13289222121238708 -0.20463544130325317 0.0
-0.1336210072040558 -0.20773644745349884 0.0
-0.12734031677246094 -0.1998835951089859 0.0
-0.12593333423137665 -0.19959159195423126 0.0
-0.12824077904224396 -0.20522744953632355 0.0
-0.12576544284820557 -0.2032339870929718 0.0
-0.12226498872041702 -0.199517622590065 0.0
-0.12346836179494858 -0.20346882939338684 0.0
-0.12463955581188202 -0.2074342966079712 0.0
-0.1221993938088417 -0.20539793372154236 0.0
-0.11977940052747726 -0.20334430038928986 0.0
-0.11889101564884186 -0.20386499166488647 0.0
-0.11550034582614899 -0.2000516802072525 0.0
-0.11710745841264725 -0.20489473640918732 0.0
-0.12015173584222794 -0.21236659586429596 0.0
-0.11482636630535126 -0.20503637194633484 0.0
-0.11199139058589935 -0.20203694701194763 0.0
-0.1130327507853508 -0.20603059232234955 0.0
-0.11547282338142395 -0.21267352998256683 0.0
-0.11265048384666443 -0.20965178310871124 0.0
-0.108448326587677 -0.20396068692207336 0.0
-0.11128228902816772 -0.21151183545589447 0.0
-0.11312884092330933 -0.21731743216514587 0.0
-0.1098901703953743 -0.2133639007806778 0.0
-0.10986614227294922 -0.21562336385250092 0.0
-0.1075739711523056 -0.2134217470884323 0.0
-0.10307212918996811 -0.20672963559627533 0.0
-0.10261141508817673 -0.20807427167892456 0.0
-0.1038944199681282 -0.21301399171352386 0.0
-0.10643956065177917 -0.22067084908485413 0.0
-0.10418416559696198 -0.2184254229068756 0.0
-0.10323011875152588 -0.21887792646884918 0.0
-0.10185149312019348 -0.21841995418071747 0.0
-0.09880418330430984 -0.2143215835094452 0.0
-0.09786809980869293 -0.21475064754486084 0.0
-0.0952872633934021 -0.21152858436107635 0.0
-0.09436339884996414 -0.21194233000278473 0.0
-0.09343773126602173 -0.21235205233097076 0.0
-0.09290904551744461 -0.21367478370666504 0.0
-0.09316007792949677 -0.21683451533317566 0.0
-0.09025941044092178 -0.21263641119003296 0.0
-0.0904908999800682 -0.21579481661319733 0.0
-0.0922272577881813 -0.22265474498271942 0.0
-0.08974027633666992 -0.21935288608074188 0.0
-0.08765849471092224 -0.2169608175754547 0.0
-0.08634043484926224 -0.21641241014003754 0.0
-0.08466234058141708 -0.21492624282836914 0.0
-0.08336130529642105 -0.21436159312725067 0.0
-0.08135008066892624 -0.2119225561618805 0.0
-0.0797160416841507 -0.21040521562099457 0.0
-0.07914743572473526 -0.21168771386146545 0.0
-0.0802997425198555 -0.21766018867492676 0.0
-0.08174342662096024 -0.22458632290363312 0.0
-0.08177647739648819 -0.22776438295841217 0.0
-0.08078189194202423 -0.22811903059482574 0.0
-0.07912638783454895 -0.2265811562538147 0.0
-0.0787881389260292 -0.22881528735160828 0.0
-0.07939621806144714 -0.2338915318250656 0.0
-0.07742300629615784 -0.23139077425003052 0.0
-0.07484680414199829 -0.2269778847694397 0.0
-0.0741647481918335 -0.2282533496618271 0.0
-0.07408270984888077 -0.2314319759607315 0.0
-0.07217007130384445 -0.22889186441898346 0.0
-0.07176375389099121 -0.23111462593078613 0.0
-0.07133940607309341 -0.2333381623029709 0.0
-0.07003240287303925 -0.23268964886665344 0.0
-0.06844840943813324 -0.23107536137104034 0.0
-0.06687984615564346 -0.2294517159461975 0.0
-0.06642932444810867 -0.23166386783123016 0.0
-0.06514643132686615 -0.23098906874656677 0.0
-0.06493967026472092 -0.23416200280189514 0.0
-0.06470643728971481 -0.23733748495578766 0.0
-0.06289378553628922 -0.23471978306770325 0.0
-0.06212364137172699 -0.2359590232372284 0.0
-0.060342345386743546 -0.23332339525222778 0.0
-0.05907755717635155 -0.23261523246765137 0.0
-0.05830395221710205 -0.23384109139442444 0.0
-0.05728308483958244 -0.23409326374530792 0.0
-0.056728020310401917 -0.2362857162952423 0.0
-0.05500888451933861 -0.2336108386516571 0.0
-0.05353914201259613 -0.2318999022245407 0.0
-0.051643986254930496 -0.22822993993759155 0.0
-0.04934900626540184 -0.22259533405303955 0.0
-0.04837728664278984 -0.22280853986740112 0.0
-0.04740465059876442 -0.22301749885082245 0.0
-0.045209240168333054 -0.21734794974327087 0.0
-0.04306422919034958 -0.21166358888149261 0.0
-0.04253045842051506 -0.21381105482578278 0.0
-0.0 -0.0 0.0
-0.38891005516052246 -2.048407793045044 0.0
-0.38744038343429565 -2.0903987884521484 0.0
-0.386501282453537 -2.1373350620269775 0.0
-0.3829022943973541 -2.171499729156494 0.0
-0.3800285756587982 -2.2115864753723145 0.0
-0.3761519491672516 -2.247743606567383 0.0
-0.37180620431900024 -2.282921314239502 0.0
-0.36575257778167725 -2.3092141151428223 0.0
-0.3561297059059143 -2.313753128051758 0.0
-0.7745413184165955 -5.182440280914307 0.0
-0.7514910101890564 -5.182801723480225 0.0
-0.7281739115715027 -5.181079864501953 0.0
-0.7047513127326965 -5.178262710571289 0.0
-0.6811061501502991 -5.173357009887695 0.0
-0.6576434373855591 -5.169335842132568 0.0
-0.6344724893569946 -5.1671929359436035 0.0
-0.6110977530479431 -5.162961006164551 0.0
-0.5876588225364685 -5.157629489898682 0.0
-0.5648223757743835 -5.157162189483643 0.0
-0.5420012474060059 -5.156594276428223 0.0
-0.5186948180198669 -5.150949954986572 0.0
-0.495543897151947 -5.146196365356445 0.0
-0.47308486700057983 -5.148309707641602 0.0
-0.4500938653945923 -5.144347667694092 0.0
-0.42706364393234253 -5.139286518096924 0.0
-0.4044000208377838 -5.138110637664795 0.0
-0.3816806674003601 -5.135837078094482 0.0
-0.3586401045322418 -5.128475666046143 0.0
-0.3361288607120514 -5.12799596786499 0.0
-0.3136896789073944 -5.128415107727051 0.0
-0.2909698188304901 -5.123745441436768 0.0
-0.26834896206855774 -5.1199727058410645 0.0
-0.2456706464290619 -5.114102840423584 0.0
-0.22304865717887878 -5.108132839202881 0.0
-0.200679749250412 -5.107059001922607 0.0
-0.17832449078559875 -5.105886936187744 0.0
-0.15592217445373535 -5.102618217468262 0.0
-0.13357797265052795 -5.100251197814941 0.0
-0.11130103468894958 -5.099785804748535 0.0
-0.08896087110042572 -5.095223426818848 0.0
-0.06664954870939255 -5.089563846588135 0.0
-0.04440677911043167 -5.085806369781494 0.0
-0.022211166098713875 -5.084951400756836 0.0
-2.3849184799473733e-05 -5.082000255584717 0.0
0.022106777876615524 -5.071951866149902 0.0
0.044158440083265305 -5.062807559967041 0.0
0.06619615107774734 -5.058567047119141 0.0
0.018005941063165665 -1.0318429470062256 0.0
0.02246437408030033 -1.0297551155090332 0.0
0.02698344551026821 -1.030646800994873 0.0
0.03141912817955017 -1.0285202264785767 0.0
0.03583676740527153 -1.0263745784759521 0.0
0.040707338601350784 -1.036200761795044 0.0
0.046013250946998596 -1.053996205329895 0.0
0.2414969503879547 -5.028204441070557 0.0
0.07598457485437393 -1.4500105381011963 0.0
0.08253741264343262 -1.4536588191986084 0.0
0.08869622647762299 -1.450290322303772 0.0
0.09495800733566284 -1.4488916397094727 0.0
0.10086052864789963 -1.4424781799316406 0.0
0.3730365037918091 -5.020159721374512 0.0
0.39509424567222595 -5.020477771759033 0.0
0.4169962406158447 -5.018706321716309 0.0
0.43880316615104675 -5.015842914581299 0.0
0.46068453788757324 -5.013880729675293 0.0
0.4826529920101166 -5.012817859649658 0.0
0.5043203830718994 -5.008674621582031 0.0
0.5259608030319214 -5.00443696975708 0.0
0.5476827025413513 -5.001100540161133 0.0
0.5692723393440247 -4.996675968170166 0.0
0.5914214253425598 -4.997123718261719 0.0
0.6130977869033813 -4.993503093719482 0.0
0.3089219629764557 -2.4284300804138184 0.0
0.3231695294380188 -2.4548192024230957 0.0
0.33198970556259155 -2.439513683319092 0.0
0.3294098973274231 -2.343966484069824 0.0
0.29601407051086426 -2.0416526794433594 0.0
0.2786104381084442 -1.864296555519104 0.0
0.2806575298309326 -1.823528528213501 0.0
0.28892430663108826 -1.8242621421813965 0.0
0.29575613141059875 -1.8160749673843384 0.0
0.3038424253463745 -1.8157535791397095 0.0
0.8512920141220093 -4.954395771026611 0.0
0.8734222054481506 -4.953588008880615 0.0
0.895917534828186 -4.954650402069092 0.0
0.9177097678184509 -4.951677322387695 0.0
0.9393066167831421 -4.947625637054443 0.0
0.9610763788223267 -4.944461822509766 0.0
0.9824462532997131 -4.939240455627441 0.0
1.0045862197875977 -4.937846660614014 0.0
1.0259182453155518 -4.932437419891357 0.0
1.047430157661438 -4.927913665771484 0.0
1.0693464279174805 -4.925251483917236 0.0
1.0919086933135986 -4.925419807434082 0.0
1.1140514612197876 -4.923534870147705 0.0
1.1350736618041992 -4.916677951812744 0.0
1.1572033166885376 -4.9145989418029785 0.0
1.179569959640503 -4.913392543792725 0.0
1.201947808265686 -4.912084102630615 0.0
1.2233692407608032 -4.906793117523193 0.0
1.2450134754180908 -4.902377605438232 0.0
1.2671432495117188 -4.899803161621094 0.0
1.2887650728225708 -4.8951945304870605 0.0
1.3111472129821777 -4.893388748168945 0.0
1.3335379362106323 -4.891479969024658 0.0
1.355937123298645 -4.889469623565674 0.0
1.3778012990951538 -4.88543176651001 0.0
1.3982778787612915 -4.876489639282227 0.0
1.1055805683135986 -3.7931642532348633 0.0
1.12212073802948 -3.788304090499878 0.0
1.1236536502838135 -3.7335779666900635 0.0
1.0788291692733765 -3.52877140045166 0.0
1.0624866485595703 -3.4218435287475586 0.0
1.076805591583252 -3.4152674674987793 0.0
1.0938310623168945 -3.417203187942505 0.0
1.1081129312515259 -3.4104959964752197 0.0
1.1236096620559692 -3.4075279235839844 0.0
1.138149619102478 -3.401644468307495 0.0
1.6460598707199097 -4.849240303039551 0.0
1.6688306331634521 -4.846739768981934 0.0
1.6912810802459717 -4.8431878089904785 0.0
1.7127310037612915 -4.836704730987549 0.0
1.736184000968933 -4.835773944854736 0.0
1.7593194246292114 -4.8337907791137695 0.0
1.781778335571289 -4.8298211097717285 0.0
1.3973023891448975 -3.7373316287994385 0.0
1.4277675151824951 -3.7686047554016113 0.0
1.444197416305542 -3.7623391151428223 0.0
1.4435656070709229 -3.7121973037719727 0.0
1.8951451778411865 -4.811202526092529 0.0
1.9176019430160522 -4.806602954864502 0.0
1.9411784410476685 -4.804680347442627 0.0
1.9643959999084473 -4.801717758178711 0.0
1.417435884475708 -3.4220597743988037 0.0
1.4397011995315552 -3.4333643913269043 0.0
1.451151728630066 -3.4187653064727783 0.0
1.4652653932571411 -3.4105632305145264 0.0
1.480930209159851 -3.4059717655181885 0.0
1.4949718713760376 -3.397646903991699 0.0
2.125978708267212 -4.77511739730835 0.0
2.1480257511138916 -4.76853084564209 0.0
2.170470714569092 -4.762753009796143 0.0
2.194580316543579 -4.760502338409424 0.0
2.219134569168091 -4.75903844833374 0.0
2.242011070251465 -4.7538323402404785 0.0
2.267467737197876 -4.753933429718018 0.0
2.2916643619537354 -4.751199722290039 0.0
2.3145651817321777 -4.745649337768555 0.0
2.338345766067505 -4.741783618927002 0.0
2.3616905212402344 -4.736905097961426 0.0
2.3850369453430176 -4.731913089752197 0.0
2.4092929363250732 -4.7285895347595215 0.0
0.0 -0.0 0.0
0.0 -0.0 0.0
2.1343469619750977 -4.056799411773682 0.0
2.1515581607818604 -4.046565055847168 0.0
2.1781868934631348 -4.053875923156738 0.0
2.205397367477417 -4.0619096755981445 0.0
2.231757402420044 -4.068029403686523 0.0
2.258697509765625 -4.074870586395264 0.0
2.2862279415130615 -4.08242654800415 0.0
2.3138673305511475 -4.089819431304932 0.0
2.3406219482421875 -4.095311641693115 0.0
2.3689687252044678 -4.103246688842773 0.0
2.3974289894104004 -4.111011981964111 0.0
2.4249868392944336 -4.116883277893066 0.0
2.452641248703003 -4.122591972351074 0.0
2.48142147064209 -4.129851341247559 0.0
2.5103116035461426 -4.136938095092773 0.0
2.5408782958984375 -4.146409511566162 0.0
2.5699963569641113 -4.153140544891357 0.0
2.5992214679718018 -4.159696578979492 0.0
2.629619836807251 -4.1677680015563965 0.0
2.659600257873535 -4.174808979034424 0.0
2.6896920204162598 -4.181667327880859 0.0
2.7215280532836914 -4.190858840942383 0.0
2.7529470920562744 -4.199015140533447 0.0
2.7850403785705566 -4.207809925079346 0.0
2.8161518573760986 -4.214742183685303 0.0
2.847935676574707 -4.222311496734619 0.0
2.880401372909546 -4.2305097579956055 0.0
2.912426710128784 -4.237680435180664 0.0
2.9462788105010986 -4.247117042541504 0.0
2.9837100505828857 -4.261253356933594 0.0
3.017280340194702 -4.2694268226623535 0.0
3.039945125579834 -4.261919975280762 0.0
3.059096336364746 -4.249426364898682 0.0
3.0793721675872803 -4.238465785980225 0.0
3.101384401321411 -4.229827880859375 0.0
3.123379707336426 -4.221078395843506 0.0
3.1423659324645996 -4.208211421966553 0.0
3.164910316467285 -4.2000508308410645 0.0
3.1892588138580322 -4.194161415100098 0.0
3.2087466716766357 -4.181792736053467 0.0
3.2294111251831055 -4.170914649963379 0.0
3.250041961669922 -4.159936428070068 0.0
3.2724955081939697 -4.1512131690979 0.0
3.2943124771118164 -4.141590595245361 0.0
3.315481662750244 -4.131076812744141 0.0
3.3385095596313477 -4.122787952423096 0.0
3.360262870788574 -4.112828254699707 0.0
3.3832650184631348 -4.104300498962402 0.0
3.4056169986724854 -4.094881057739258 0.0
3.4273083209991455 -4.084578990936279 0.0
3.448974609375 -4.074164867401123 0.0
3.471914052963257 -4.065160751342773 0.0
3.492229461669922 -4.053003311157227 0.0
3.586638927459717 -4.126029014587402 0.0
3.091641664505005 -3.5254039764404297 0.0
3.1507270336151123 -3.561312198638916 0.0
0.0 -0.0 0.0
3.6494028568267822 -4.053144454956055 0.0
3.628056049346924 -3.9942495822906494 0.0
3.6508543491363525 -3.9842793941497803 0.0
3.6749918460845947 -3.9756548404693604 0.0
3.6977598667144775 -3.965433120727539 0.0
2.9866843223571777 -3.1749958992004395 0.0
3.0025742053985596 -3.164109945297241 0.0
3.0177347660064697 -3.152423858642578 0.0
3.047437906265259 -3.155771255493164 0.0
0.0 -0.0 0.0
3.5017104148864746 -3.5634312629699707 0.0
3.4968090057373047 -3.527522563934326 0.0
3.862889289855957 -3.862959861755371 0.0
3.8839688301086426 -3.850292444229126 0.0
3.897878646850586 -3.830505132675171 0.0
3.9073922634124756 -3.806483268737793 0.0
3.9153318405151367 -3.781061887741089 0.0
3.9252912998199463 -3.757718563079834 0.0
3.9351212978363037 -3.7343602180480957 0.0
3.947007894515991 -3.713043451309204 0.0
3.958051919937134 -3.691012144088745 0.0
3.9998199939727783 -3.697465181350708 0.0
0.0 -0.0 0.0
3.4486470222473145 -3.13258957862854 0.0
3.46525502204895 -3.1201887130737305 0.0
0.0 -0.0 0.0
1.9083232879638672 -1.6883740425109863 0.0
1.904394507408142 -1.6701412200927734 0.0
1.9063806533813477 -1.6572233438491821 0.0
1.9135934114456177 -1.648889422416687 0.0
1.9253321886062622 -1.6444209814071655 0.0
1.9401211738586426 -1.6424658298492432 0.0
1.947269320487976 -1.633984923362732 0.0
4.088668346405029 -3.40057635307312 0.0
4.096522331237793 -3.376978874206543 0.0
4.1088948249816895 -3.3571746349334717 0.0
4.1196184158325195 -3.3360676765441895 0.0
4.127896308898926 -3.3130533695220947 0.0
4.1391825675964355 -3.292520523071289 0.0
4.148797512054443 -3.270714282989502 0.0
4.157512664794922 -3.2482707500457764 0.0
1.8335951566696167 -1.4197499752044678 0.0
1.850085973739624 -1.4196499586105347 0.0
1.8467109203338623 -1.4043004512786865 0.0
1.8440356254577637 -1.3896092176437378 0.0
1.8516838550567627 -1.382746696472168 0.0
1.865738034248352 -1.3806023597717285 0.0
1.8822280168533325 -1.3801356554031372 0.0
1.9505257606506348 -1.4171698093414307 0.0
2.1628291606903076 -1.5570472478866577 0.0
2.2225193977355957 -1.585341453552246 0.0
2.2416651248931885 -1.5842862129211426 0.0
2.2452800273895264 -1.5721958875656128 0.0
5.762991428375244 -3.998016119003296 0.0
5.800159454345703 -3.9864261150360107 0.0
5.842296123504639 -3.9779651165008545 0.0
5.886955261230469 -3.970889091491699 0.0
5.929169654846191 -3.9618325233459473 0.0
5.97308349609375 -3.9535861015319824 0.0
6.015366077423096 -3.9439353942871094 0.0
6.057677268981934 -3.933990716934204 0.0
6.1016974449157715 -3.924833059310913 0.0
2.1346096992492676 -1.3599275350570679 0.0
2.15067195892334 -1.357004165649414 0.0
2.1506359577178955 -1.3438977003097534 0.0
2.150527000427246 -1.330817461013794 0.0
2.157166004180908 -1.3219441175460815 0.0
2.1723172664642334 -1.3182257413864136 0.0
2.1831915378570557 -1.3118250370025635 0.0
2.178581714630127 -1.296151041984558 0.0
6.685339450836182 -3.938060998916626 0.0
6.871769428253174 -4.007595062255859 0.0
6.990514755249023 -4.036074638366699 0.0
7.0202131271362305 -4.012481689453125 0.0
37.842838287353516 -21.410982131958008 0.0
37.886165618896484 -21.217805862426758 0.0
6.745902061462402 -3.7394089698791504 0.0
20.181255340576172 -11.072097778320312 0.0
5.542667388916016 -3.009500026702881 0.0
5.573363780975342 -2.994753360748291 0.0
5.6093339920043945 -2.9826130867004395 0.0
5.649729251861572 -2.972543954849243 0.0
5.69014310836792 -2.9621784687042236 0.0
5.728795051574707 -2.950601100921631 0.0
5.769236087799072 -2.939650535583496 0.0
5.809689998626709 -2.928402900695801 0.0
5.8465752601623535 -2.9150731563568115 0.0
5.889732360839844 -2.9045729637145996 0.0
5.935605049133301 -2.895066499710083 0.0
5.9770026206970215 -2.883042573928833 0.0
6.01931095123291 -2.871142864227295 0.0
6.063436985015869 -2.8597817420959473 0.0
6.1066718101501465 -2.8476672172546387 0.0
6.153548240661621 -2.836904287338257 0.0
6.197716236114502 -2.8245418071746826 0.0
6.245540142059326 -2.813490867614746 0.0
6.293385028839111 -2.8020758628845215 0.0
6.339417934417725 -2.7894911766052246 0.0
6.390045642852783 -2.7785515785217285 0.0
6.437941074371338 -2.7660388946533203 0.0
6.468358993530273 -2.745736598968506 0.0
6.48581075668335 -2.7198073863983154 0.0
6.505931377410889 -2.6949260234832764 0.0
6.523181438446045 -2.6687848567962646 0.0
6.542181491851807 -2.643293619155884 0.0
6.560154438018799 -2.617316722869873 0.0
6.577094554901123 -2.590867042541504 0.0
6.594860553741455 -2.5646815299987793 0.0
6.617191314697266 -2.540182113647461 0.0
6.634757995605469 -2.513765335083008 0.0
6.652219772338867 -2.487243175506592 0.0
6.6705145835876465 -2.4609627723693848 0.0
6.688706874847412 -2.4345703125 0.0
6.708677291870117 -2.4087412357330322 0.0
6.7266645431518555 -2.3821167945861816 0.0
6.7454915046691895 -2.355710983276367 0.0
6.765161037445068 -2.3295116424560547 0.0
6.784730434417725 -2.30318546295166 0.0
6.803250312805176 -2.2764153480529785 0.0
6.8216657638549805 -2.2495276927948 0.0
6.840926647186279 -2.2228312492370605 0.0
6.861036777496338 -2.196314811706543 0.0
6.879137992858887 -2.1690633296966553 0.0
6.900951862335205 -2.1428821086883545 0.0
6.920755863189697 -2.115966796875 0.0
6.937582969665527 -2.088054895401001 0.0
6.953339576721191 -2.0597524642944336 0.0
6.961300373077393 -2.029113292694092 0.0
9.379002571105957 -2.6894922256469727 0.0
9.355999946594238 -2.638770818710327 0.0
9.363570213317871 -2.596853494644165 0.0
9.356481552124023 -2.5509748458862305 0.0
9.349170684814453 -2.5052075386047363 0.0
3.726017951965332 -0.9810203313827515 0.0
3.7215495109558105 -0.9624996781349182 0.0
3.7189292907714844 -0.944529116153717 0.0
3.7307775020599365 -0.9302287101745605 0.0
3.761998414993286 -0.9205967783927917 0.0
3.798067569732666 -0.9118772745132446 0.0
3.8214776515960693 -0.8998806476593018 0.0
3.8429064750671387 -0.8872470855712891 0.0
3.8721001148223877 -0.8762092590332031 0.0
3.8954122066497803 -0.8636347055435181 0.0
3.9157562255859375 -0.850236713886261 0.0
3.93703556060791 -0.8368855714797974 0.0
3.9602303504943848 -0.8237720727920532 0.0
3.982405662536621 -0.8102726936340332 0.0
4.00257682800293 -0.7962052822113037 0.0
4.024663925170898 -0.7823587656021118 0.0
4.047688007354736 -0.7685211300849915 0.0
4.071650981903076 -0.7546796202659607 0.0
4.09458589553833 -0.7404655814170837 0.0
4.120428085327148 -0.7265866994857788 0.0
4.148198127746582 -0.7128350734710693 0.0
4.172967433929443 -0.6983597278594971 0.0
4.200649261474609 -0.6841638684272766 0.0
4.211496829986572 -0.6670802235603333 0.0
4.214367389678955 -0.6486977338790894 0.0
4.223091125488281 -0.6311898231506348 0.0
9.18098258972168 -1.3312759399414062 0.0
9.158976554870605 -1.2873066663742065 0.0
9.144688606262207 -1.244633674621582 0.0
9.139126777648926 -1.203284740447998 0.0
9.123457908630371 -1.1607460975646973 0.0
9.048039436340332 -1.1110543012619019 0.0
9.001161575317383 -1.0654518604278564 0.0
9.064345359802246 -1.032846450805664 0.0
9.087653160095215 -0.9953547716140747 0.0
9.08494758605957 -0.9549612998962402 0.0
9.100968360900879 -0.9165142178535461 0.0
9.088953971862793 -0.8752614855766296 0.0
9.028955459594727 -0.8297384977340698 0.0
8.996625900268555 -0.7871964573860168 0.0
8.965095520019531 -0.7450352907180786 0.0
0.0 -0.0 0.0
3.2979040145874023 -0.245110884308815 0.0
3.308917760848999 -0.23141644895076752 0.0
3.301913261413574 -0.21645312011241913 0.0
3.29084849357605 -0.20131108164787292 0.0
3.295689105987549 -0.18717697262763977 0.0
3.3194429874420166 -0.17399904131889343 0.0
3.3401474952697754 -0.16047339141368866 0.0
3.3617959022521973 -0.1468140035867691 0.0
3.386385917663574 -0.13308651745319366 0.0
3.410919666290283 -0.11914723366498947 0.0
3.434396505355835 -0.10496582835912704 0.0
3.4588136672973633 -0.09060799330472946 0.0
3.481170654296875 -0.07599540799856186 0.0
3.509464979171753 -0.06129422411322594 0.0
3.5356967449188232 -0.046321358531713486 0.0
