# .PCD v0.7 - Point Cloud Data file format
VERSION 0.7
FIELDS x y z
SIZE 4 4 4
TYPE F F F
COUNT 1 1 1
WIDTH 908
HEIGHT 1
VIEWPOINT 0 0 0 1 0 0 0
POINTS 908
DATA ascii
3.3357396125793457 -2.044191837310791 -0.17081353068351746
3.3369405269622803 -2.0249531269073486 -0.17042095959186554
3.3371806144714355 -2.005228281021118 -0.16998475790023804
3.342463970184326 -1.9886047840118408 -0.16981028020381927
3.345083475112915 -1.9704523086547852 -0.16950494050979614
3.3450191020965576 -1.9508050680160522 -0.16906875371932983
3.3491733074188232 -1.933693528175354 -0.16885066032409668
3.35237455368042 -1.91608726978302 -0.16858893632888794
3.351138114929199 -1.8960299491882324 -0.16810911893844604
3.356764078140259 -1.8799254894256592 -0.16797825694084167
3.3535759449005127 -1.8589645624160767 -0.1674112230539322
3.352896213531494 -1.8395086526870728 -0.1669750213623047
3.3652806282043457 -1.8272451162338257 -0.16719311475753784
3.3785016536712646 -1.8153811693191528 -0.16745483875274658
3.3846263885498047 -1.7996842861175537 -0.1673675924539566
3.38979434967041 -1.7835034132003784 -0.16723673045635223
3.405519485473633 -1.7728476524353027 -0.16762931644916534
3.414999008178711 -1.7588863372802734 -0.16771654784679413
3.4181902408599854 -1.7417010068893433 -0.16749845445156097
3.40613055229187 -1.7168768644332886 -0.16653881967067719
3.4064364433288574 -1.6984320878982544 -0.16618987917900085
3.4227752685546875 -1.6879714727401733 -0.16662606596946716
3.4292099475860596 -1.6725828647613525 -0.16658245027065277
3.426576852798462 -1.6528295278549194 -0.16610263288021088
3.4220335483551025 -1.63227117061615 -0.165535569190979
3.4227981567382812 -1.6143410205841064 -0.16523024439811707
3.4279985427856445 -1.5985465049743652 -0.16514301300048828
3.433126211166382 -1.5827373266220093 -0.1650557667016983
3.4281814098358154 -1.5623564720153809 -0.16448871791362762
3.419480800628662 -1.540407657623291 -0.16374719142913818
3.424344062805176 -1.5246598720550537 -0.1636599451303482
3.4547393321990967 -1.5201655626296997 -0.16479404270648956
3.473249912261963 -1.5102559328079224 -0.16536110639572144
3.4632842540740967 -1.487987995147705 -0.1645759642124176
3.4504315853118896 -1.4646645784378052 -0.1636599451303482
3.4494190216064453 -1.4465045928955078 -0.16331098973751068
3.4483137130737305 -1.4283812046051025 -0.16296203434467316
3.4554381370544434 -1.4136998653411865 -0.16300566494464874
3.4606473445892334 -1.3982349634170532 -0.16296203434467316
3.4574360847473145 -1.3794195652008057 -0.16252583265304565
3.4606335163116455 -1.3632222414016724 -0.16239498555660248
3.4712042808532715 -1.3499199151992798 -0.16261307895183563
3.4863882064819336 -1.3383413553237915 -0.16304928064346313
3.489391803741455 -1.3220546245574951 -0.16291841864585876
3.4792191982269287 -1.3008686304092407 -0.16217689216136932
3.4679908752441406 -1.2794510126113892 -0.1613917499780655
3.4632136821746826 -1.2605481147766113 -0.1609119176864624
3.467740535736084 -1.2450875043869019 -0.160868301987648
3.466547966003418 -1.2276102304458618 -0.16056297719478607
3.46243953704834 -1.2091790437698364 -0.16012677550315857
3.466737985610962 -1.1937345266342163 -0.16008315980434418
3.4738056659698486 -1.17923903465271 -0.16017039120197296
3.4836552143096924 -1.165655493736267 -0.1603884994983673
3.4915542602539062 -1.1513826847076416 -0.16051934659481049
3.490844249725342 -1.1342847347259521 -0.16025763750076294
3.4881482124328613 -1.116605520248413 -0.15990868210792542
3.490128755569458 -1.1004737615585327 -0.15977782011032104
3.4863104820251465 -1.0825682878494263 -0.15938524901866913
3.4862236976623535 -1.0658856630325317 -0.15916715562343597
3.487971305847168 -1.049800157546997 -0.1590362936258316
3.4810237884521484 -1.0311659574508667 -0.15851286053657532
3.473980665206909 -1.0126125812530518 -0.15798942744731903
3.4687623977661133 -0.994691014289856 -0.15755324065685272
3.4596080780029297 -0.9757495522499084 -0.15694256126880646
3.459019184112549 -0.9593099355697632 -0.1567244678735733
3.47184681892395 -0.9465731382369995 -0.15711703896522522
3.4778738021850586 -0.9319325089454651 -0.157204270362854
3.4712796211242676 -0.913950502872467 -0.1567244678735733
3.460726022720337 -0.8950432538986206 -0.15607017278671265
3.448137044906616 -0.87575364112854 -0.1553286463022232
3.4451398849487305 -0.8590080738067627 -0.15502330660820007
3.448855400085449 -0.8439676761627197 -0.15502330660820007
3.4476478099823 -0.8277450799942017 -0.15480521321296692
3.4512267112731934 -0.8126940131187439 -0.15480521321296692
3.450845956802368 -0.7967284917831421 -0.15463073551654816
3.442596673965454 -0.7790178656578064 -0.15410730242729187
3.4323079586029053 -0.7609618306159973 -0.1534966230392456
3.434619188308716 -0.7457664012908936 -0.1534530073404312
3.4427268505096436 -0.7318115830421448 -0.15367111563682556
3.4468650817871094 -0.7169864177703857 -0.15371473133563995
3.449960708618164 -0.7019398212432861 -0.15371473133563995
3.451030969619751 -0.686489999294281 -0.15362748503684998
3.4490902423858643 -0.6704723834991455 -0.15340939164161682
3.439223051071167 -0.65299391746521 -0.15284234285354614
3.4243578910827637 -0.6347039341926575 -0.15205718576908112
3.416280508041382 -0.617800772190094 -0.15157736837863922
3.432717800140381 -0.6053174734115601 -0.15218804776668549
3.439265012741089 -0.5910105109214783 -0.15236252546310425
3.4260454177856445 -0.5733598470687866 -0.1516646146774292
3.4117517471313477 -0.5556753277778625 -0.15092308819293976
3.404276132583618 -0.5392204523086548 -0.15048688650131226
3.400672197341919 -0.5234495401382446 -0.1502251774072647
3.381186008453369 -0.5053573846817017 -0.14926554262638092
3.3873136043548584 -0.49117282032966614 -0.14944002032279968
3.406243085861206 -0.47875213623046875 -0.15018154680728912
3.399390459060669 -0.4626724421977997 -0.1497889906167984
3.400386095046997 -0.4477050006389618 -0.14974536001682281
3.4023072719573975 -0.4328638017177582 -0.14974536001682281
3.408130168914795 -0.41850143671035767 -0.14991983771324158
2.383077383041382 -0.2820807099342346 -0.10477377474308014
2.3783297538757324 -0.27100130915641785 -0.104512058198452
2.369558572769165 -0.2595336139202118 -0.10407586395740509
2.363713264465332 -0.24846094846725464 -0.10377053171396255
2.3697450160980225 -0.23864547908306122 -0.10398861765861511
2.3807082176208496 -0.22926093637943268 -0.10442481189966202
2.3836755752563477 -0.21905384957790375 -0.104512058198452
2.3776419162750244 -0.2080414742231369 -0.10420672595500946
3.3791213035583496 -0.28081849217414856 -0.14804419875144958
3.373342514038086 -0.26552289724349976 -0.14773887395858765
3.3714802265167236 -0.250579297542572 -0.14760801196098328
3.356595754623413 -0.2347509264945984 -0.14691010117530823
3.350609540939331 -0.21964536607265472 -0.1466047614812851
3.3565220832824707 -0.20532852411270142 -0.14682286977767944
3.3603785037994385 -0.19085097312927246 -0.14695371687412262
3.3482093811035156 -0.17550693452358246 -0.14638666808605194
3.34794545173645 -0.16084803640842438 -0.14634305238723755
3.346619129180908 -0.14615119993686676 -0.14625580608844757
3.3352456092834473 -0.13107667863368988 -0.14573237299919128
3.3327903747558594 -0.11641808599233627 -0.14560151100158691
3.3362624645233154 -0.10196654498577118 -0.14573237299919128
3.3346784114837646 -0.08735611289739609 -0.1456451416015625
3.336026430130005 -0.07282685488462448 -0.1456887573003769
3.3363125324249268 -0.05827004462480545 -0.1456887573003769
3.337533950805664 -0.04372521489858627 -0.14573237299919128
3.3446860313415527 -0.029223207384347916 -0.14603771269321442
3.33878755569458 -0.014602813869714737 -0.14577600359916687
3.3268308639526367 -3.438861676841043e-05 -0.14525257050991058
3.313811779022217 0.014425069093704224 -0.1446855068206787
3.2937369346618652 0.028709957376122475 -0.1438131332397461
3.2785959243774414 0.042885273694992065 -0.14315882325172424
3.2823731899261475 0.057260096073150635 -0.1433333158493042
3.299071788787842 0.07195188105106354 -0.14407484233379364
3.3007237911224365 0.08639834821224213 -0.14416207373142242
3.2154362201690674 0.09820718318223953 -0.14045444130897522
2.884493350982666 0.10069887340068817 -0.12601642310619354
2.8001708984375 0.10999002307653427 -0.12235238403081894
2.7886853218078613 0.12172775715589523 -0.12187257409095764
2.780144453048706 0.13351111114025116 -0.12152361124753952
2.7855215072631836 0.14595413208007812 -0.12178532779216766
2.8068020343780518 0.15935267508029938 -0.12274496257305145
2.921753406524658 0.17867179214954376 -0.12780480086803436
3.1970903873443604 0.20951519906520844 -0.13988737761974335
3.2559423446655273 0.22764386236667633 -0.14250454306602478
3.2539219856262207 0.24177435040473938 -0.1424609273672104
3.2518398761749268 0.2558915317058563 -0.1424172967672348
3.252683639526367 0.2702433168888092 -0.14250454306602478
3.2514736652374268 0.28443318605422974 -0.14250454306602478
3.249206781387329 0.29852625727653503 -0.1424609273672104
3.2389233112335205 0.3118390142917633 -0.14206835627555847
3.2236154079437256 0.3245673179626465 -0.1414576768875122
3.2181942462921143 0.33821213245391846 -0.14128319919109344
3.2107291221618652 0.3515983819961548 -0.1410214751958847
3.208171844482422 0.3654913604259491 -0.1409778594970703
3.2204360961914062 0.3811299204826355 -0.14158853888511658
3.2246921062469482 0.39590850472450256 -0.14185024797916412
3.214014768600464 0.40884047746658325 -0.1414576768875122
3.2062571048736572 0.4220779836177826 -0.14119596779346466
3.2024049758911133 0.4357944428920746 -0.14110872149467468
3.1915690898895264 0.44851210713386536 -0.14071615040302277
3.1885929107666016 0.46229031682014465 -0.14067253470420837
3.1934621334075928 0.4772323668003082 -0.1409778594970703
3.1893746852874756 0.4908579885959625 -0.14089062809944153
3.1842422485351562 0.5043007135391235 -0.14075976610183716
3.182011365890503 0.5181897878646851 -0.14075976610183716
3.1767640113830566 0.5315743088722229 -0.14062891900539398
3.1753990650177 0.545599639415741 -0.14067253470420837
3.17889142036438 0.5604905486106873 -0.14093424379825592
3.167567491531372 0.5727558135986328 -0.140541672706604
3.1542327404022217 0.5845689177513123 -0.1400618553161621
3.164411783218384 0.6007486581802368 -0.14062891900539398
1.794671654701233 0.3488296866416931 -0.07982347905635834
1.8097901344299316 0.3599703013896942 -0.08056501299142838
1.8121181726455688 0.36866024136543274 -0.08073949068784714
1.8036456108093262 0.3751395046710968 -0.080434150993824
1.7941737174987793 0.38134413957595825 -0.08008519560098648
1.785658597946167 0.38768529891967773 -0.07977986335754395
1.7829746007919312 0.39525678753852844 -0.07973624020814896
1.7880538702011108 0.40457603335380554 -0.08004157990217209
1.7950327396392822 0.41439658403396606 -0.080434150993824
1.8048769235610962 0.4249725937843323 -0.08095758408308029
3.062971830368042 0.7353213429450989 -0.13753193616867065
3.0587639808654785 0.7484416365623474 -0.13748832046985626
3.0467448234558105 0.7596057057380676 -0.13709573447704315
3.038559913635254 0.7716628909111023 -0.13687764108181
3.0448362827301025 0.7874149680137634 -0.1373138427734375
3.0481343269348145 0.8024734854698181 -0.13761916756629944
3.051358938217163 0.8175757527351379 -0.13792450726032257
3.0545096397399902 0.8327214121818542 -0.1382298469543457
3.048921585083008 0.8455073237419128 -0.13814260065555573
3.035588026046753 0.8560909628868103 -0.13770641386508942
3.0106961727142334 0.8632700443267822 -0.13674679398536682
2.9963502883911133 0.8733233213424683 -0.13626696169376373
2.979100465774536 0.8824167251586914 -0.13565629720687866
2.979048490524292 0.8965587019920349 -0.13583077490329742
2.992305278778076 0.9148062467575073 -0.13661593198776245
3.017862558364868 0.9370375871658325 -0.13796812295913696
3.156667470932007 0.9952581524848938 -0.14451104402542114
0.0 0.0 -0.0
3.111755847930908 1.0110357999801636 -0.1428534984588623
0.0 0.0 -0.0
2.223604917526245 0.74398273229599 -0.10237470269203186
2.2165534496307373 0.7523934841156006 -0.1022002324461937
2.2094709873199463 0.7607568502426147 -0.10202575474977493
2.2004714012145996 0.7684140205383301 -0.10176403820514679
2.19427227973938 0.7770075798034668 -0.10163317620754242
2.2077860832214355 0.7926509976387024 -0.10241832584142685
0.0 0.0 -0.0
2.8990750312805176 1.069491982460022 -0.13491477072238922
2.914032220840454 1.0894784927368164 -0.13583077490329742
2.8971054553985596 1.0975816249847412 -0.13526372611522675
2.89228892326355 1.1102122068405151 -0.13526372611522675
2.886486053466797 1.1224595308303833 -0.13522011041641235
2.8685474395751953 1.1299175024032593 -0.1346094310283661
2.862661838531494 1.1420528888702393 -0.1345658153295517
2.854872703552246 1.1534100770950317 -0.13443496823310852
2.847038984298706 1.164720892906189 -0.13430410623550415
2.849313735961914 1.1801908016204834 -0.13465304672718048
2.8358449935913086 1.189134955406189 -0.13426047563552856
2.8205137252807617 1.197203516960144 -0.13378067314624786
2.816180944442749 1.2098932266235352 -0.13382428884506226
2.8136234283447266 1.2233647108078003 -0.13395513594150543
2.8219754695892334 1.2416651248931885 -0.1346094310283661
2.8283956050872803 1.2592488527297974 -0.13517649471759796
2.8055672645568848 1.263782024383545 -0.13434772193431854
2.7936625480651855 1.2731115818023682 -0.1340423822402954
2.8025975227355957 1.2919811010360718 -0.13474029302597046
2.796027898788452 1.3037751913070679 -0.13469666242599487
2.7812764644622803 1.3117011785507202 -0.13426047563552856
2.775526762008667 1.3238242864608765 -0.13426047563552856
2.7733235359191895 1.3376582860946655 -0.13443496823310852
2.7629706859588623 1.347556710243225 -0.13421685993671417
2.7481043338775635 1.3551809787750244 -0.13378067314624786
2.745741367340088 1.3689420223236084 -0.13395513594150543
2.7370657920837402 1.3795604705810547 -0.13382428884506226
2.727459669113159 1.3896758556365967 -0.1336498111486435
2.721370220184326 1.4015634059906006 -0.1336498111486435
2.7090253829956055 1.4101951122283936 -0.13334447145462036
2.7028465270996094 1.4220019578933716 -0.13334447145462036
2.6957340240478516 1.4333127737045288 -0.13330085575580597
2.686814308166504 1.4436429738998413 -0.1331699937582016
2.6813673973083496 1.4558292627334595 -0.133213609457016
2.6714861392974854 1.4655929803848267 -0.13303913176059723
2.6537067890167236 1.470939040184021 -0.13247208297252655
2.636803150177002 1.4766461849212646 -0.13194864988327026
2.6277265548706055 1.486661434173584 -0.1318177878856659
2.620347499847412 1.4976170063018799 -0.1317741721868515
2.6129229068756104 1.508536696434021 -0.1317305564880371
2.603726625442505 1.5184133052825928 -0.13159969449043274
2.5996592044830322 1.5312808752059937 -0.1317305564880371
2.5920941829681396 1.5420984029769897 -0.13168692588806152
2.5793464183807373 1.5497920513153076 -0.13138160109519958
2.5768303871154785 1.563623070716858 -0.13159969449043274
2.581057071685791 1.5816376209259033 -0.1321667581796646
2.572432279586792 1.5918329954147339 -0.13207951188087463
2.5586841106414795 1.5988068580627441 -0.1317305564880371
2.5398547649383545 1.6024924516677856 -0.13111987709999084
2.5235698223114014 1.6076548099517822 -0.13064007461071014
2.5215728282928467 1.621893286705017 -0.1309017837047577
2.522850751876831 1.6383212804794312 -0.1313379853963852
2.5190200805664062 1.651504635810852 -0.13151246309280396
2.5117902755737305 1.662480115890503 -0.13151246309280396
2.5078351497650146 1.675644040107727 -0.13168692588806152
2.5021564960479736 1.687687873840332 -0.1317741721868515
2.4955945014953613 1.699151635169983 -0.1318177878856659
2.4873337745666504 1.709458589553833 -0.1317741721868515
2.474925994873047 1.7168785333633423 -0.13151246309280396
2.462500810623169 1.7242228984832764 -0.13125073909759521
2.4492430686950684 1.7309149503707886 -0.13094539940357208
2.4392271041870117 1.739844799041748 -0.1308145374059677
2.43404483795166 1.7522224187850952 -0.13094539940357208
2.424759864807129 1.7616517543792725 -0.1308581680059433
2.4202730655670166 1.7745778560638428 -0.13103264570236206
2.423750162124634 1.7934406995773315 -0.13164331018924713
2.4199044704437256 1.8069878816604614 -0.13186141848564148
2.4080076217651367 1.8145232200622559 -0.13164331018924713
2.3960912227630615 1.8219892978668213 -0.13142521679401398
2.3833627700805664 1.82877779006958 -0.13116350769996643
2.372990846633911 1.8373247385025024 -0.13103264570236206
2.36810040473938 1.8501214981079102 -0.13120712339878082
2.3592207431793213 1.8598181009292603 -0.13116350769996643
2.3456103801727295 1.8657410144805908 -0.1308581680059433
2.339005470275879 1.8772083520889282 -0.13094539940357208
2.340109348297119 1.8949408531188965 -0.13146883249282837
2.3411030769348145 1.9127185344696045 -0.13199228048324585
2.329651355743408 1.9203733205795288 -0.1318177878856659
2.3143370151519775 1.9247705936431885 -0.13142521679401398
2.3013248443603516 1.930997371673584 -0.13116350769996643
2.2860147953033447 1.9352108240127563 -0.13077092170715332
2.266913414001465 1.936083436012268 -0.13016025722026825
2.2539031505584717 1.942043423652649 -0.1298985481262207
2.250685930252075 1.9564473628997803 -0.13020387291908264
2.2511415481567383 1.9741536378860474 -0.13072730600833893
2.247744083404541 1.9885910749435425 -0.13103264570236206
2.23979115486145 1.9990448951721191 -0.13107626140117645
2.2369871139526367 2.014146566390991 -0.13142521679401398
2.235572576522827 2.0306053161621094 -0.13186141848564148
2.225954532623291 2.0396652221679688 -0.1318177878856659
2.2104310989379883 2.043255090713501 -0.13142521679401398
2.1985721588134766 2.0501549243927 -0.13125073909759521
2.187422752380371 2.0576748847961426 -0.13111987709999084
2.172626256942749 2.0616981983184814 -0.13077092170715332
2.160001277923584 2.06770396232605 -0.13055282831192017
2.155270576477051 2.081273078918457 -0.1308145374059677
2.154041051864624 2.098325729370117 -0.1312943696975708
2.149852991104126 2.1126060485839844 -0.13159969449043274
2.1377766132354736 2.1191530227661133 -0.13142521679401398
2.1263904571533203 2.1263413429260254 -0.1312943696975708
2.1149821281433105 2.1334705352783203 -0.13116350769996643
2.095149278640747 2.1319899559020996 -0.13050921261310577
2.07955265045166 2.1346709728240967 -0.13011662662029266
2.0709128379821777 2.1444430351257324 -0.13016025722026825
2.0615363121032715 2.153458595275879 -0.13016025722026825
2.0514326095581055 2.161708354949951 -0.13011662662029266
2.0447192192077637 2.1735496520996094 -0.13029111921787262
2.0379414558410645 2.185373067855835 -0.13046559691429138
2.0270302295684814 2.192777156829834 -0.1303783506155014
2.0187931060791016 2.2030739784240723 -0.13046559691429138
2.0091612339019775 2.2118616104125977 -0.13046559691429138
1.9968172311782837 2.217637538909912 -0.13029111921787262
1.9844609498977661 2.2233474254608154 -0.13011662662029266
1.9760650396347046 2.2334816455841064 -0.13020387291908264
1.9663008451461792 2.2420825958251953 -0.13020387291908264
1.958465576171875 2.2529027462005615 -0.130334734916687
1.9492690563201904 2.262183427810669 -0.1303783506155014
1.9374333620071411 2.268388032913208 -0.13024748861789703
1.927517294883728 2.276819944381714 -0.13024748861789703
1.9207755327224731 2.2890353202819824 -0.13046559691429138
1.9203521013259888 2.308915853500366 -0.13111987709999084
1.9159786701202393 2.3242108821868896 -0.13151246309280396
1.9102439880371094 2.3379640579223633 -0.1318177878856659
1.898138403892517 2.343947649002075 -0.13168692588806152
1.8866424560546875 2.350649356842041 -0.13159969449043274
1.8751240968704224 2.357295036315918 -0.13151246309280396
1.8629651069641113 2.363100528717041 -0.13138160109519958
1.8544816970825195 2.373568534851074 -0.13151246309280396
1.8434959650039673 2.380847692489624 -0.13146883249282837
1.8336982727050781 2.3896613121032715 -0.13151246309280396
1.8208351135253906 2.394458532333374 -0.1313379853963852
1.809167504310608 2.400784730911255 -0.13125073909759521
1.7986749410629272 2.408655881881714 -0.13125073909759521
1.7851769924163818 2.412465810775757 -0.13103264570236206
1.776405930519104 2.4226491451263428 -0.13116350769996643
1.7775630950927734 2.4465417861938477 -0.13203589618206024
1.7855496406555176 2.480219841003418 -0.13343171775341034
1.771229863166809 2.483107089996338 -0.1331699937582016
1.7419270277023315 2.4647042751312256 -0.1317741721868515
1.7225606441497803 2.46000599861145 -0.13111987709999084
1.712949514389038 2.4691402912139893 -0.13120712339878082
1.7072525024414062 2.4840009212493896 -0.13159969449043274
1.7042697668075562 2.5029876232147217 -0.132210373878479
1.691097617149353 2.507086992263794 -0.13203589618206024
1.6751469373703003 2.5069658756256104 -0.13164331018924713
1.663089394569397 2.512584924697876 -0.13155607879161835
1.6526583433151245 2.520653009414673 -0.13159969449043274
1.6416443586349487 2.5278401374816895 -0.13159969449043274
1.609520673751831 2.5022099018096924 -0.1298985481262207
1.5824834108352661 2.48393177986145 -0.1285899579524994
1.5732296705245972 2.493347644805908 -0.12872081995010376
1.5803358554840088 2.52899432182312 -0.13020387291908264
1.5834805965423584 2.558803081512451 -0.13138160109519958
1.5717787742614746 2.564836025238037 -0.1313379853963852
1.5610909461975098 2.572523832321167 -0.13138160109519958
1.5488224029541016 2.5775980949401855 -0.1312943696975708
1.5406256914138794 2.5894830226898193 -0.13155607879161835
1.5440171957015991 2.6211438179016113 -0.13282103836536407
1.5416253805160522 2.64339017868042 -0.1336061954498291
1.520585536956787 2.633652687072754 -0.13277742266654968
1.4996603727340698 2.6237823963165283 -0.13194864988327026
1.4842621088027954 2.623344659805298 -0.13159969449043274
1.4728015661239624 2.629796028137207 -0.13159969449043274
1.4627660512924194 2.6388185024261475 -0.1317305564880371
1.450757622718811 2.6442999839782715 -0.13168692588806152
1.4382526874542236 2.6488490104675293 -0.13159969449043274
1.4252625703811646 2.652459144592285 -0.13146883249282837
1.4146136045455933 2.660416841506958 -0.13155607879161835
1.4099698066711426 2.679826021194458 -0.132210373878479
1.4116418361663818 2.71165132522583 -0.13347533345222473
1.3517645597457886 2.6245276927948 -0.12889529764652252
1.2241860628128052 2.402521848678589 -0.11772873252630234
1.1912074089050293 2.363234043121338 -0.11554776132106781
1.21743905544281 2.441723585128784 -0.11912455409765244
1.3362442255020142 2.7095441818237305 -0.13190503418445587
1.3331682682037354 2.733307361602783 -0.13277742266654968
1.3173229694366455 2.730999708175659 -0.13238483667373657
1.3105556964874268 2.747542381286621 -0.13290828466415405
1.3036689758300781 2.764077663421631 -0.13343171775341034
1.2899072170257568 2.766117572784424 -0.13325722515583038
1.2790803909301758 2.7744414806365967 -0.13338808715343475
1.2690342664718628 2.7845418453216553 -0.1336061954498291
1.2544102668762207 2.7845869064331055 -0.13334447145462036
1.2398101091384888 2.784557580947876 -0.13308274745941162
1.2119559049606323 2.7542779445648193 -0.13138160109519958
1.0943554639816284 2.516751766204834 -0.11982246488332748
1.0159246921539307 2.364539861679077 -0.1123635470867157
1.0180896520614624 2.3983778953552246 -0.1137593612074852
1.1339534521102905 2.704068183898926 -0.1280229091644287
1.1680238246917725 2.819749593734741 -0.13325722515583038
1.165166974067688 2.847935914993286 -0.13434772193431854
1.1557235717773438 2.860402822494507 -0.13469666242599487
1.1432318687438965 2.8654184341430664 -0.13469666242599487
1.1307183504104614 2.8703794479370117 -0.13469666242599487
1.1084063053131104 2.8501455783843994 -0.13351894915103912
1.0644522905349731 2.772878408432007 -0.12968043982982635
1.038184642791748 2.740126609802246 -0.12793566286563873
1.039864420890808 2.781126022338867 -0.12963682413101196
1.060225009918213 2.8737423419952393 -0.13373704254627228
1.0569020509719849 2.903688430786133 -0.13491477072238922
1.0475984811782837 2.917675018310547 -0.13535095751285553
1.0348578691482544 2.9222183227539062 -0.13535095751285553
1.0230857133865356 2.929535388946533 -0.1354818195104599
1.013221025466919 2.9424731731414795 -0.135874405503273
1.0003725290298462 2.946866035461426 -0.135874405503273
0.9745073318481445 2.9123587608337402 -0.1340859979391098
0.922680675983429 2.7979843616485596 -0.12863357365131378
0.8959528803825378 2.757326602935791 -0.12658347189426422
0.8796491622924805 2.7478890419006348 -0.12597280740737915
0.8601400852203369 2.7278807163238525 -0.12488231062889099
0.8482294082641602 2.7316079139709473 -0.12488231062889099
0.8587947487831116 2.8088479042053223 -0.12824100255966187
0.881083071231842 2.9273669719696045 -0.13347533345222473
0.0 0.0 -0.0
0.6416279077529907 2.2012081146240234 -0.10010649263858795
0.6292634010314941 2.194383382797241 -0.09967030584812164
0.6213098764419556 2.2028775215148926 -0.09993202239274979
0.0 0.0 -0.0
0.8217592835426331 3.0140068531036377 -0.1363978236913681
0.8098934292793274 3.0223886966705322 -0.13661593198776245
0.8010225296020508 3.0423178672790527 -0.1373574584722519
0.7952450513839722 3.074800491333008 -0.138666033744812
0.7840347290039062 3.086956262588501 -0.13905861973762512
0.7686242461204529 3.082592487335205 -0.1387096494436264
0.7546917796134949 3.0839762687683105 -0.13862241804599762
0.7400621175765991 3.0823824405670166 -0.13840432465076447
0.7238578796386719 3.073913097381592 -0.13788089156150818
0.709989070892334 3.0750951766967773 -0.1377936452627182
0.6963443160057068 3.0771894454956055 -0.1377500295639038
0.6833435297012329 3.082149028778076 -0.1378372609615326
0.6705247163772583 3.0880303382873535 -0.13796812295913696
0.6578752398490906 3.0948352813720703 -0.13814260065555573
0.647010326385498 3.110391855239868 -0.1387096494436264
0.6338310837745667 3.115143299102783 -0.13879689574241638
0.6210124492645264 3.121798515319824 -0.13897137343883514
0.5843176245689392 3.005815267562866 -0.13369342684745789
0.4985159635543823 2.6255462169647217 -0.11668186634778976
0.47631269693374634 2.569739818572998 -0.11410832405090332
0.4762963354587555 2.6337289810180664 -0.11685634404420853
0.5423535704612732 3.075571060180664 -0.1363542079925537
0.5346816778182983 3.1113851070404053 -0.1378372609615326
0.5202761888504028 3.108761787414551 -0.13761916756629944
0.506225049495697 3.108044147491455 -0.13748832046985626
0.492815226316452 3.1112101078033447 -0.13753193616867065
0.48045140504837036 3.121230125427246 -0.13788089156150818
0.4643173813819885 3.106499433517456 -0.13713935017585754
0.4484645128250122 3.0926766395568848 -0.1364414542913437
0.4387204945087433 3.1213157176971436 -0.13761916756629944
0.4296782314777374 3.15685772895813 -0.13910223543643951
0.41576945781707764 3.157711982727051 -0.13905861973762512
0.39341309666633606 3.0921037197113037 -0.13609249889850616
0.25352194905281067 2.0645105838775635 -0.09081556648015976
0.24533356726169586 2.0725419521331787 -0.0911208987236023
0.2357226014137268 2.068629503250122 -0.09090280532836914
0.22712944447994232 2.073610782623291 -0.0910772830247879
0.2199595421552658 2.0924665927886963 -0.09186244010925293
0.32535094022750854 3.230565309524536 -0.14176301658153534
0.31058159470558167 3.2249929904937744 -0.1414576768875122
0.2972384989261627 3.234276294708252 -0.14180663228034973
0.2824268937110901 3.2275805473327637 -0.1414576768875122
0.26627275347709656 3.2038917541503906 -0.14036719501018524
0.2514283359050751 3.1940674781799316 -0.13988737761974335
0.237563356757164 3.1961302757263184 -0.13993100821971893
0.22326692938804626 3.192153215408325 -0.13971289992332458
0.20469623804092407 3.122316598892212 -0.13661593198776245
0.16044571995735168 2.622593641281128 -0.11471899598836899
0.1469048708677292 2.5863635540008545 -0.11310508102178574
0.12923762202262878 2.4652631282806396 -0.10778351128101349
0.15252287685871124 3.1743104457855225 -0.138753280043602
0.13910695910453796 3.184926748275757 -0.1391894668340683
0.10790486633777618 2.74526309967041 -0.11995332688093185
0.0869607999920845 2.4891088008880615 -0.10874313116073608
0.0768624097108841 2.5144290924072266 -0.10983362048864365
0.07685481011867523 2.9331979751586914 -0.1281101405620575
0.06566964089870453 3.0074174404144287 -0.1313379853963852
0.052581705152988434 3.0096733570098877 -0.13142521679401398
0.04058822989463806 3.0967836380004883 -0.13522011041641235
0.028132522478699684 3.2178115844726562 -0.1404980570077896
0.014162027277052402 3.2338883876800537 -0.14119596779346466
4.9066478823078796e-05 3.080065965652466 -0.1344785839319229
-0.012838548980653286 2.9531588554382324 -0.12893891334533691
-0.025828327983617783 2.9650628566741943 -0.1294623464345932
-0.04106425493955612 3.1407392024993896 -0.13713935017585754
-0.05715431272983551 3.277379035949707 -0.14311520755290985
-0.07195480167865753 3.3000710010528564 -0.14411845803260803
-0.0865100845694542 3.305717945098877 -0.14438018202781677
-0.10093304514884949 3.3053090572357178 -0.14438018202781677
-0.11517983675003052 3.299844741821289 -0.14416207373142242
-0.1292632520198822 3.2913248538970947 -0.1438131332397461
-0.14388437569141388 3.296718120574951 -0.14407484233379364
-0.15956127643585205 3.323002338409424 -0.14525257050991058
-0.17432032525539398 3.3272628784179688 -0.14547066390514374
-0.18708114326000214 3.2955496311187744 -0.14411845803260803
-0.20066611468791962 3.281738519668579 -0.14355140924453735
-0.21498335897922516 3.280831813812256 -0.14355140924453735
-0.2297145575284958 3.285842180252075 -0.1438131332397461
-0.14249171316623688 1.917881965637207 -0.08396732062101364
-0.15078026056289673 1.9162460565567017 -0.08392370492219925
-0.15938808023929596 1.9185566902160645 -0.08405455946922302
-0.17167532444000244 1.9626291990280151 -0.0860174372792244
-0.2028125375509262 2.2075915336608887 -0.09679142385721207
-0.2292928844690323 2.381708860397339 -0.1044684424996376
-0.0 0.0 -0.0
-0.34790268540382385 3.3105990886688232 -0.14533980190753937
-0.35571086406707764 3.248469591140747 -0.14267902076244354
-0.3383324444293976 2.9699432849884033 -0.13050921261310577
-0.33931219577789307 2.8672420978546143 -0.12606003880500793
-0.3583934009075165 2.919281005859375 -0.12841548025608063
-0.0 0.0 -0.0
-0.3037981390953064 2.307873249053955 -0.10163317620754242
-0.3166939616203308 2.3273138999938965 -0.10254918038845062
-0.34992367029190063 2.490138530731201 -0.10979000478982925
-0.4103809893131256 2.8306822776794434 -0.12488231062889099
-0.4752923250198364 3.1806201934814453 -0.14041081070899963
-0.49737170338630676 3.2318367958068848 -0.14276626706123352
-0.5216258764266968 3.2937746047973633 -0.14560151100158691
-0.5432183742523193 3.3358399868011475 -0.14756439626216888
-0.5569440722465515 3.3285114765167236 -0.14734630286693573
-0.5709545016288757 3.3230957984924316 -0.14721544086933136
-0.5885710120201111 3.338282585144043 -0.1480005830526352
-0.606508731842041 3.3543615341186523 -0.1488293558359146
-0.6209569573402405 3.350701093673706 -0.14878574013710022
-0.04844576120376587 0.25519484281539917 -0.011341041885316372
-0.04689023271203041 0.24125124514102936 -0.01073036901652813
-0.04462934285402298 0.22438684105873108 -0.00998884066939354
-0.04720127210021019 0.23202192783355713 -0.01033779513090849
-0.05004407837986946 0.2406168133020401 -0.01073036901652813
-0.05067808926105499 0.23844173550605774 -0.010643131099641323
-0.04959840700030327 0.2284553050994873 -0.010206936858594418
-0.049513667821884155 0.2233598530292511 -0.00998884066939354
-0.05092871934175491 0.22509053349494934 -0.010076078586280346
-0.05101148784160614 0.22097237408161163 -0.009901601821184158
-0.04899861663579941 0.20810575783252716 -0.009334549307823181
-0.049672968685626984 0.20691853761672974 -0.00929092988371849
-0.052712325006723404 0.21543362736701965 -0.009683504700660706
-0.05437684431672096 0.21810971200466156 -0.009814362041652203
-0.05557390674948692 0.2188386768102646 -0.009857981465756893
-0.057028479874134064 0.22052857279777527 -0.009945221245288849
-0.05977056920528412 0.22704055905342102 -0.010250556282699108
-0.06308764219284058 0.23546269536018372 -0.010643131099641323
-0.06463995575904846 0.23711292445659637 -0.01073036901652813
-0.06353819370269775 0.22912687063217163 -0.01038141455501318
-0.06345268338918686 0.2250012904405594 -0.010206936858594418
-0.06498453766107559 0.22664299607276917 -0.010294175706803799
-0.06597282737493515 0.22635729610919952 -0.010294175706803799
-0.06695985794067383 0.22606727480888367 -0.010294175706803799
-0.0685214251279831 0.22768627107143402 -0.01038141455501318
-0.0700983926653862 0.22929593920707703 -0.010468653403222561
-0.07169069349765778 0.23089613020420074 -0.010555892251431942
-0.07239707559347153 0.229628324508667 -0.010512272827327251
-0.07035274058580399 0.21979528665542603 -0.010076078586280346
-0.06884145736694336 0.2118849754333496 -0.009727123193442822
-0.0675753727555275 0.20494097471237183 -0.009421788156032562
-0.06783497333526611 0.2027493268251419 -0.009334549307823181
-0.07064568251371384 0.20812761783599854 -0.009596265852451324
-0.07187836617231369 0.2087620198726654 -0.009639885276556015
-0.0731179341673851 0.2093895971775055 -0.009683504700660706
-0.07436433434486389 0.2100103199481964 -0.009727123193442822
-0.07494238018989563 0.20874355733394623 -0.009683504700660706
-0.07482744753360748 0.2055981606245041 -0.009552646428346634
-0.07814420759677887 0.21183085441589355 -0.009857981465756893
-0.08361589163541794 0.22365310788154602 -0.01042503397911787
-0.08211340010166168 0.21674637496471405 -0.010119698010385036
-0.0 0.0 -0.0
-0.0 0.0 -0.0
-0.0 0.0 -0.0
-0.0 0.0 -0.0
-0.0 0.0 -0.0
-0.0 0.0 -0.0
-0.0 0.0 -0.0
-0.0 0.0 -0.0
-0.0 0.0 -0.0
-0.0 0.0 -0.0
-0.0 0.0 -0.0
-0.0 0.0 -0.0
-0.0 0.0 -0.0
-0.0 0.0 -0.0
-0.0 0.0 -0.0
-0.0 0.0 -0.0
-0.0 0.0 -0.0
-0.0 0.0 -0.0
-0.0 0.0 -0.0
-0.0 0.0 -0.0
-0.0 0.0 -0.0
-0.0 0.0 -0.0
-0.0 0.0 -0.0
-0.0 0.0 -0.0
-0.0 0.0 -0.0
-0.0 0.0 -0.0
-0.0 0.0 -0.0
-0.0 0.0 -0.0
-0.0 0.0 -0.0
-0.0 0.0 -0.0
-0.0 0.0 -0.0
-0.0 0.0 -0.0
-0.0 0.0 -0.0
-1.1134470701217651 1.9882900714874268 -0.09949582815170288
-1.1250636577606201 1.9886301755905151 -0.09975754469633102
-1.1327383518218994 1.9819674491882324 -0.09967030584812164
-0.0 0.0 -0.0
-0.0 0.0 -0.0
-0.0 0.0 -0.0
-0.9694799780845642 1.6296192407608032 -0.0827895998954773
-0.9760667085647583 1.6245172023773193 -0.0827459767460823
-0.9826273918151855 1.6193888187408447 -0.08270236104726791
-0.9886398911476135 1.6133822202682495 -0.08261512219905853
-0.0 0.0 -0.0
-1.4775521755218506 2.364677667617798 -0.12174171209335327
-1.4921205043792725 2.3649673461914062 -0.1220906674861908
-1.4975944757461548 2.350851058959961 -0.12169809639453888
-0.0 0.0 -0.0
-0.0 0.0 -0.0
-0.0 0.0 -0.0
-1.3123219013214111 1.9827845096588135 -0.10381414741277695
-1.3242909908294678 1.9820237159729004 -0.10407586395740509
-1.332926630973816 1.9762266874313354 -0.10407586395740509
-1.336476445198059 1.9629595279693604 -0.10368328541517258
-0.0 0.0 -0.0
-0.0 0.0 -0.0
-1.3494497537612915 1.927293062210083 -0.10272365808486938
-1.3636120557785034 1.9295454025268555 -0.10315985232591629
-1.3720182180404663 1.9235771894454956 -0.10315985232591629
-1.375728964805603 1.9110859632492065 -0.10281089693307877
-2.263695240020752 3.1158363819122314 -0.16815274953842163
-2.2896742820739746 3.1228487491607666 -0.16906875371932983
-2.299118757247925 3.1072068214416504 -0.1687634140253067
-0.0 0.0 -0.0
-1.993066668510437 2.644995927810669 -0.14459827542304993
-2.008821487426758 2.641841411590576 -0.14490361511707306
-0.0 0.0 -0.0
-1.1938806772232056 1.541980504989624 -0.08514504879713058
-1.1999822854995728 1.5359692573547363 -0.0851014256477356
-1.2060542106628418 1.5299341678619385 -0.0850578099489212
-1.2108526229858398 1.5223116874694824 -0.08492695540189743
-0.0 0.0 -0.0
-0.0 0.0 -0.0
-1.8324229717254639 2.242863655090332 -0.12645260989665985
-1.8453689813613892 2.238701343536377 -0.126670703291893
-0.0 0.0 -0.0
-0.0 0.0 -0.0
-0.14588163793087006 0.17232926189899445 -0.009857981465756893
-0.16220371425151825 0.18992377817630768 -0.010904846712946892
-0.1845509558916092 0.2141905128955841 -0.01234428770840168
-0.1992475688457489 0.2292173057794571 -0.013260294683277607
-0.21341988444328308 0.2433685064315796 -0.014132681302726269
-0.22242344915866852 0.25141406059265137 -0.01465611532330513
-0.22684448957443237 0.25416797399520874 -0.014874211512506008
-0.231962189078331 0.25763043761253357 -0.015135927125811577
-0.2324123978614807 0.255876362323761 -0.015092308633029461
-0.2321767807006836 0.2533866763114929 -0.01500506978482008
-0.2319238781929016 0.2509039342403412 -0.014917830936610699
-0.235060453414917 0.25208160281181335 -0.015048690140247345
-0.23547358810901642 0.25032588839530945 -0.01500506978482008
-0.23174981772899628 0.24422317743301392 -0.014699733816087246
-0.23281322419643402 0.24320966005325317 -0.014699733816087246
-0.23248420655727386 0.2407541573047638 -0.014612494967877865
-0.23283538222312927 0.23902185261249542 -0.014568876475095749
-0.23667700588703156 0.24085400998592377 -0.014743354171514511
-0.23561565577983856 0.23769043385982513 -0.014612494967877865
-0.23382486402988434 0.23383434116840363 -0.014438018202781677
-0.23413342237472534 0.2321084886789322 -0.014394397847354412
-0.23656906187534332 0.23248520493507385 -0.014481637626886368
-0.23901242017745972 0.23284505307674408 -0.014568876475095749
-0.2385888248682022 0.23041194677352905 -0.014481637626886368
-0.23742693662643433 0.2272961139678955 -0.014350779354572296
-0.23841643333435059 0.22625799477100372 -0.014350779354572296
-0.23940138518810272 0.22521555423736572 -0.014350779354572296
-0.2396511286497116 0.2234874665737152 -0.014307158999145031
-0.2384231686592102 0.22040517628192902 -0.014176301658153534
-0.23569977283477783 0.2159879505634308 -0.013958204537630081
-0.21675953269004822 -0.19862352311611176 0.0
-0.21295355260372162 -0.19685222208499908 0.0
-0.2033163607120514 -0.1895955502986908 0.0
-0.2039438933134079 -0.19185122847557068 0.0
-0.20310483872890472 -0.19273926317691803 0.0
-0.19937250018119812 -0.19085758924484253 0.0
-0.19566045701503754 -0.18894705176353455 0.0
-0.19340156018733978 -0.1884033977985382 0.0
-0.19186443090438843 -0.18854457139968872 0.0
-0.19103991985321045 -0.18937993049621582 0.0
-0.19091887772083282 -0.19091878831386566 0.0
-0.18867599964141846 -0.1903296411037445 0.0
-0.18784373998641968 -0.19115106761455536 0.0
-0.18491454422473907 -0.18981996178627014 0.0
-0.1799165904521942 -0.18630895018577576 0.0
-0.17356985807418823 -0.18131330609321594 0.0
-0.17140036821365356 -0.18061816692352295 0.0
-0.1678699105978012 -0.1784508228302002 0.0
-0.1650436967611313 -0.17698752880096436 0.0
-0.16223347187042236 -0.17550301551818848 0.0
-0.1607905626296997 -0.1754719316959381 0.0
-0.16271287202835083 -0.17913271486759186 0.0
-0.16126057505607605 -0.17909783124923706 0.0
-0.15914581716060638 -0.17830762267112732 0.0
-0.15969154238700867 -0.18049824237823486 0.0
-0.15956181287765503 -0.18194514513015747 0.0
-0.15876640379428864 -0.18263962864875793 0.0
-0.15796798467636108 -0.18333062529563904 0.0
-0.15586766600608826 -0.18249733746051788 0.0
-0.15377764403820038 -0.18164922297000885 0.0
-0.1516980230808258 -0.1807863861322403 0.0
-0.1502683162689209 -0.18067772686481476 0.0
-0.1520228385925293 -0.18441815674304962 0.0
-0.15248213708400726 -0.18662850558757782 0.0
-0.15229569375514984 -0.1880692094564438 0.0
-0.15147365629673004 -0.18873192369937897 0.0
-0.14940369129180908 -0.18782582879066467 0.0
-0.14672544598579407 -0.18611998856067657 0.0
-0.14714327454566956 -0.18833443522453308 0.0
-0.1481567770242691 -0.19134674966335297 0.0
-0.14549417793750763 -0.1896113157272339 0.0
-0.1440601646900177 -0.18944834172725677 0.0
-0.14503762125968933 -0.19247101247310638 0.0
-0.1429997831583023 -0.1914995163679123 0.0
-0.14335250854492188 -0.19372935593128204 0.0
-0.1460537165403366 -0.19919165968894958 0.0
-0.14341983199119568 -0.19740000367164612 0.0
-0.14372564852237701 -0.19964703917503357 0.0
-0.1393689513206482 -0.1953875720500946 0.0
-0.13736079633235931 -0.19436052441596985 0.0
-0.13536429405212402 -0.19331972301006317 0.0
-0.12995950877666473 -0.18733535706996918 0.0
-0.1314065009355545 -0.19119711220264435 0.0
-0.13394783437252045 -0.1967281848192215 0.0
-0.1364433467388153 -0.2022850066423416 0.0
-0.13611498475074768 -0.20370987057685852 0.0
-0.12860159575939178 -0.1942952275276184 0.0
-0.12884919345378876 -0.19652707874774933 0.0
-0.13180294632911682 -0.2029581069946289 0.0
-0.1276702731847763 -0.19848503172397614 0.0
-0.12680301070213318 -0.19904020428657532 0.0
-0.12593333423137665 -0.19959159195423126 0.0
-0.12135181576013565 -0.19420284032821655 0.0
-0.12523923814296722 -0.2023836374282837 0.0
-0.12539997696876526 -0.2046334445476532 0.0
-0.12346836179494858 -0.20346882939338684 0.0
-0.1215493232011795 -0.20229129493236542 0.0
-0.11913162469863892 -0.20024150609970093 0.0
-0.11876431852579117 -0.20162104070186615 0.0
-0.11788345873355865 -0.2021373212337494 0.0
-0.1165003553032875 -0.20178373157978058 0.0
-0.11760368198156357 -0.20576292276382446 0.0
-0.11818203330039978 -0.20888516306877136 0.0
-0.11629223078489304 -0.20765385031700134 0.0
-0.11393064260482788 -0.20553544163703918 0.0
-0.11158977448940277 -0.2034004032611847 0.0
-0.11022406071424484 -0.2030065506696701 0.0
-0.10981055349111557 -0.20436644554138184 0.0
-0.11032622307538986 -0.20749248564243317 0.0
-0.11361037194728851 -0.2159367799758911 0.0
-0.11497584730386734 -0.22086548805236816 0.0
-0.10851654410362244 -0.21069686114788055 0.0
-0.10305625945329666 -0.20225828886032104 0.0
-0.1075739711523056 -0.2134217470884323 0.0
-0.10753412544727325 -0.21567897498607635 0.0
-0.10305371135473251 -0.20897114276885986 0.0
-0.10214092582464218 -0.20941880345344543 0.0
-0.10079175233840942 -0.20896178483963013 0.0
-0.10289262235164642 -0.21571767330169678 0.0
-0.10237697511911392 -0.21706901490688324 0.0
-0.09931576997041702 -0.21298211812973022 0.0
-0.09796686470508575 -0.2125052958726883 0.0
-0.09828279912471771 -0.21566061675548553 0.0
-0.0952872633934021 -0.21152858436107635 0.0
-0.09232970327138901 -0.20737461745738983 0.0
-0.09504873305559158 -0.21601329743862152 0.0
-0.09729530662298203 -0.22376243770122528 0.0
-0.09316007792949677 -0.21683451533317566 0.0
-0.08947794139385223 -0.21079541742801666 0.0
-0.08933075517416 -0.2130282074213028 0.0
-0.09031383693218231 -0.21803535521030426 0.0
-0.08936162292957306 -0.21842734515666962 0.0
-0.08765849471092224 -0.2169608175754547 0.0
-0.08559931814670563 -0.2145548015832901 0.0
-0.08282981812953949 -0.21027417480945587 0.0
-0.08372374624013901 -0.21529360115528107 0.0
-0.08350030332803726 -0.21752403676509857 0.0
-0.08113321661949158 -0.21414576470851898 0.0
-0.07949765026569366 -0.21262438595294952 0.0
-0.07856915146112442 -0.21296922862529755 0.0
-0.07934926450252533 -0.21800847351551056 0.0
-0.0797489583492279 -0.2221173346042633 0.0
-0.07911285012960434 -0.2234058380126953 0.0
-0.07813731580972672 -0.22374889254570007 0.0
-0.07813699543476105 -0.22692424058914185 0.0
-0.07650323212146759 -0.2253691554069519 0.0
-0.07615377008914948 -0.22759747505187988 0.0
-0.07484680414199829 -0.2269778847694397 0.0
-0.07509180903434753 -0.23110653460025787 0.0
-0.07499730587005615 -0.23428915441036224 0.0
-0.07126794755458832 -0.22603072226047516 0.0
-0.06968794763088226 -0.22442948818206787 0.0
-0.07075465470552444 -0.23142555356025696 0.0
-0.07003240287303925 -0.23268964886665344 0.0
-0.06930046528577805 -0.23395182192325592 0.0
-0.06715967506170273 -0.23041176795959473 0.0
-0.0647754818201065 -0.22589631378650665 0.0
-0.06433210521936417 -0.2281017005443573 0.0
-0.06387069821357727 -0.23030748963356018 0.0
-0.06286519765853882 -0.23058398067951202 0.0
-0.06263495981693268 -0.23375385999679565 0.0
-0.06212364137172699 -0.2359590232372284 0.0
-0.06059272959828377 -0.23429153859615326 0.0
-0.05956986919045448 -0.23455369472503662 0.0
-0.05902973189949989 -0.2367519736289978 0.0
-0.05847152695059776 -0.2389499545097351 0.0
-0.0564945712685585 -0.23531334102153778 0.0
-0.05615490302443504 -0.23847773671150208 0.0
-0.055563732981681824 -0.24066922068595886 0.0
-0.05252678692340851 -0.23213130235671997 0.0
-0.050214774906635284 -0.2265005111694336 0.0
-0.04880164936184883 -0.22476299107074738 0.0
-0.046365074813365936 -0.21812675893306732 0.0
-0.04419101029634476 -0.2124527245759964 0.0
-0.04306422919034958 -0.21166358888149261 0.0
-0.04038442671298981 -0.20302242040634155 0.0
-0.03892575949430466 -0.20025181770324707 0.0
-1.0016533136367798 -5.275755405426025 0.0
-0.9778951406478882 -5.276142597198486 0.0
-0.9513055682182312 -5.260678291320801 0.0
-0.9266062378883362 -5.2549309730529785 0.0
-0.9024831652641296 -5.252025127410889 0.0
-0.8775778412818909 -5.244077682495117 0.0
-0.8524376749992371 -5.234038829803467 0.0
-0.8275582790374756 -5.2248687744140625 0.0
-0.80307936668396 -5.217557430267334 0.0
-0.7782366871833801 -5.207165718078613 0.0
-0.7537869215011597 -5.198636054992676 0.0
-0.7297048568725586 -5.191972732543945 0.0
-0.7055604457855225 -5.184207916259766 0.0
-0.6818893551826477 -5.179305553436279 0.0
-0.6575171947479248 -5.1683430671691895 0.0
-0.6334975361824036 -5.159252643585205 0.0
-0.6099222898483276 -5.153029918670654 0.0
-0.5863003134727478 -5.145706653594971 0.0
-0.5627538561820984 -5.138275146484375 0.0
-0.5389698147773743 -5.127752780914307 0.0
-0.5155889391899109 -5.120106220245361 0.0
-0.49238085746765137 -5.113348484039307 0.0
-0.469058632850647 -5.104494571685791 0.0
-0.4457358717918396 -5.09453821182251 0.0
-0.42250895500183105 -5.084475517272949 0.0
-0.39953526854515076 -5.076301574707031 0.0
-0.37671512365341187 -5.069021224975586 0.0
-0.3538265824317932 -5.059643268585205 0.0
-0.330896258354187 -5.048166751861572 0.0
-0.30819493532180786 -5.038583278656006 0.0
-0.2859237492084503 -5.03488826751709 0.0
-0.2634289860725403 -5.026101589202881 0.0
-0.24101632833480835 -5.017214775085449 0.0
-0.2187298983335495 -5.009227275848389 0.0
-0.1965177357196808 -5.001140594482422 0.0
-0.1744152456521988 -4.993955612182617 0.0
-0.15237918496131897 -4.986672878265381 0.0
-0.13035765290260315 -4.977293491363525 0.0
-0.10846450924873352 -4.9698166847229 0.0
-0.08660418540239334 -4.960244655609131 0.0
-0.06482945382595062 -4.950575828552246 0.0
-0.04315821826457977 -4.942811965942383 0.0
-0.02156907320022583 -4.937952995300293 0.0
-2.313117693120148e-05 -4.929000377655029 0.0
0.021448630839586258 -4.920953273773193 0.0
0.04284144937992096 -4.911813259124756 0.0
0.06420725584030151 -4.906579971313477 0.0
0.0854758694767952 -4.89825439453125 0.0
0.10665124654769897 -4.8888373374938965 0.0
0.1278245896100998 -4.882327079772949 0.0
0.14885154366493225 -4.872726917266846 0.0
0.16983206570148468 -4.8640360832214355 0.0
0.19081808626651764 -4.857253551483154 0.0
0.2116609364748001 -4.848381996154785 0.0
0.23257392644882202 -4.842418193817139 0.0
0.25343891978263855 -4.83636474609375 0.0
0.2740854322910309 -4.827225208282471 0.0
0.2948401868343353 -4.820992946624756 0.0
0.3152841329574585 -4.8106794357299805 0.0
0.3360622525215149 -4.806265830993652 0.0
0.3565855324268341 -4.798769950866699 0.0
0.37697136402130127 -4.79019021987915 0.0
0.2673710882663727 -3.2179114818573 0.0
0.28236788511276245 -3.227672576904297 0.0
0.2970889210700989 -3.2333803176879883 0.0
0.3111942410469055 -3.232053279876709 0.0
0.3244921863079071 -3.2227048873901367 0.0
0.34199994802474976 -3.254077434539795 0.0
0.3682788014411926 -3.3628947734832764 0.0
0.4024185836315155 -3.5321502685546875 0.0
0.4164161682128906 -3.518444061279297 0.0
0.4112910330295563 -3.3498456478118896 0.0
0.40583863854408264 -3.1902902126312256 0.0
0.4167529344558716 -3.1656858921051025 0.0
0.43164053559303284 -3.171764373779297 0.0
0.44603240489959717 -3.173811674118042 0.0
0.45930245518684387 -3.167876720428467 0.0
0.4726770222187042 -3.1628756523132324 0.0
0.4860166907310486 -3.157817840576172 0.0
0.49932122230529785 -3.1527040004730225 0.0
0.5117867588996887 -3.142599582672119 0.0
0.5251638293266296 -3.138363838195801 0.0
0.5412232279777527 -3.1498403549194336 0.0
0.555308997631073 -3.149418592453003 0.0
