# .PCD v0.7 - Point Cloud Data file format
VERSION 0.7
FIELDS x y z
SIZE 4 4 4
TYPE F F F
COUNT 1 1 1
WIDTH 904
HEIGHT 1
VIEWPOINT 0 0 0 1 0 0 0
POINTS 904
DATA ascii
-0.0786488801240921 0.20760144293308258 0.0
-0.07812055200338364 0.2035219520330429 0.0
-0.07683330774307251 0.1975870579481125 0.0
-0.07806118577718735 0.19818036258220673 0.0
-0.07744299620389938 0.19412259757518768 0.0
-0.08240976184606552 0.20398195087909698 0.0
-0.08367764204740524 0.2045459896326065 0.0
-0.08227333426475525 0.19863559305667877 0.0
-0.08816628158092499 0.2102634310722351 0.0
-0.08869216591119766 0.20895622670650482 0.0
-0.08447160571813583 0.19662287831306458 0.0
-0.0861261859536171 0.19808655977249146 0.0
-0.08779513835906982 0.19953951239585876 0.0
-0.0870380699634552 0.19550032913684845 0.0
-0.08871166408061981 0.19694222509860992 0.0
-0.08957013487815857 0.1965532898902893 0.0
-0.08875235170125961 0.19252797961235046 0.0
-0.0938175842165947 0.20120206475257874 0.0
-0.09512113779783249 0.2016952484846115 0.0
-0.0929868221282959 0.19496013224124908 0.0
-0.09557432681322098 0.19815537333488464 0.0
-0.09643802046775818 0.1977364718914032 0.0
-0.09685761481523514 0.1964169293642044 0.0
-0.09682135283946991 0.19420254230499268 0.0
-0.09451721608638763 0.18752732872962952 0.0
-0.09215673059225082 0.18087603151798248 0.0
-0.09157149493694305 0.1778051257133484 0.0
-0.09650202840566635 0.18538706004619598 0.0
-0.09218843281269073 0.1752292811870575 0.0
-0.09295212477445602 0.17482535541057587 0.0
-0.09939369559288025 0.18498891592025757 0.0
-0.10210847854614258 0.18806877732276917 0.0
-0.10821879655122757 0.19726555049419403 0.0
-0.10713932663202286 0.19329297542572021 0.0
-0.10114122927188873 0.1806085854768753 0.0
-0.10094349831342697 0.17842482030391693 0.0
-0.1076754555106163 0.18840116262435913 0.0
-0.0 0.0 0.0
-0.0 0.0 0.0
-0.0 0.0 0.0
-0.0 0.0 0.0
-0.0 0.0 0.0
-0.0 0.0 0.0
-0.0 0.0 0.0
-0.0 0.0 0.0
-0.0 0.0 0.0
-0.0 0.0 0.0
-0.0 0.0 0.0
-0.0 0.0 0.0
-0.0 0.0 0.0
-0.0 0.0 0.0
-0.0 0.0 0.0
-0.0 0.0 0.0
-0.0 0.0 0.0
-0.0 0.0 0.0
-0.0 0.0 0.0
-0.0 0.0 0.0
-0.0 0.0 0.0
-0.0 0.0 0.0
-0.0 0.0 0.0
-0.0 0.0 0.0
-0.0 0.0 0.0
-0.0 0.0 0.0
-0.0 0.0 0.0
-0.0 0.0 0.0
-0.0 0.0 0.0
-0.0 0.0 0.0
-0.0 0.0 0.0
-0.0 0.0 0.0
-0.1403673142194748 0.17966921627521515 0.0
-0.14734070003032684 0.1869083195924759 0.0
-0.15313482284545898 0.19252461194992065 0.0
-0.15585114061832428 0.19419430196285248 0.0
-0.15480905771255493 0.19118095934391022 0.0
-0.15184561908245087 0.18585723638534546 0.0
-0.15265512466430664 0.18519291281700134 0.0
-0.15218287706375122 0.18298736214637756 0.0
-0.1504087597131729 0.1792573779821396 0.0
-0.1518355906009674 0.17936263978481293 0.0
-0.1539156287908554 0.18021927773952484 0.0
-0.15535324811935425 0.18030355870723724 0.0
-0.15613847970962524 0.17962399125099182 0.0
-0.1556020975112915 0.17743730545043945 0.0
-0.15637482702732086 0.17675668001174927 0.0
-0.1591421663761139 0.17831088602542877 0.0
-0.16058778762817383 0.17835797369480133 0.0
-0.16270919144153595 0.17913605272769928 0.0
-0.16619156301021576 0.18137355148792267 0.0
-0.1690177321434021 0.1828497052192688 0.0
-0.1711779236793518 0.18357323110103607 0.0
-0.17745861411094666 0.1886516511440277 0.0
-0.1782800555229187 0.18787555396556854 0.0
-0.1880876123905182 0.19648680090904236 0.0
-0.2035306692123413 0.21077066659927368 0.0
-0.21282169222831726 0.21847639977931976 0.0
-0.22708992660045624 0.2310977429151535 0.0
-0.23302413523197174 0.23507609963417053 0.0
-0.2319263368844986 0.23193572461605072 0.0
-0.23293612897396088 0.23092156648635864 0.0
-0.23679444193840027 0.2327066957950592 0.0
-0.2356586903333664 0.22957786917686462 0.0
-0.23737747967243195 0.22924210131168365 0.0
-0.24054251611232758 0.23027876019477844 0.0
-0.23646746575832367 0.22440841794013977 0.0
-0.2381727397441864 0.22405971586704254 0.0
-0.24207347631454468 0.22574642300605774 0.0
-0.24011893570423126 0.2219727784395218 0.0
-0.24108517169952393 0.22092296183109283 0.0
-0.18193419277668 -0.1667119711637497 0.010773989371955395
-0.18560679256916046 -0.17157314717769623 0.011035705916583538
-0.17828047275543213 -0.16624921560287476 0.010643131099641323
-0.18119177222251892 -0.1704481840133667 0.010861228220164776
-0.18841788172721863 -0.17880184948444366 0.011341041885316372
-0.1861925721168518 -0.178240567445755 0.011253802105784416
-0.18613171577453613 -0.17974525690078735 0.011297421529889107
-0.19035500288009644 -0.18543557822704315 0.011602756567299366
-0.18740637600421906 -0.1841636598110199 0.011471899226307869
-0.18021543323993683 -0.17864950001239777 0.011079324409365654
-0.1751956343650818 -0.17519554495811462 0.010817608796060085
-0.17302283644676208 -0.17453928291797638 0.01073036901652813
-0.1722596287727356 -0.17529256641864777 0.01073036901652813
-0.17219026386737823 -0.17675814032554626 0.010773989371955395
-0.172111377120018 -0.17822642624378204 0.010817608796060085
-0.17133209109306335 -0.17897570133209229 0.010817608796060085
-0.17054954171180725 -0.17972157895565033 0.010817608796060085
-0.16771014034748077 -0.17828097939491272 0.010686749592423439
-0.16829335689544678 -0.18047237396240234 0.010773989371955395
-0.16750429570674896 -0.18120495975017548 0.010773989371955395
-0.16603709757328033 -0.18119752407073975 0.01073036901652813
-0.16322973370552063 -0.17970173060894012 0.010599511675536633
-0.16110709309577942 -0.17892736196517944 0.010512272827327251
-0.15899436175823212 -0.17813792824745178 0.01042503397911787
-0.15887756645679474 -0.17957821488380432 0.010468653403222561
-0.16006866097450256 -0.18252310156822205 0.010599511675536633
-0.15795986354351044 -0.181711807847023 0.010512272827327251
-0.15586122870445251 -0.18088561296463013 0.01042503397911787
-0.15766580402851105 -0.18460269272327423 0.010599511675536633
-0.15879535675048828 -0.18757636845111847 0.01073036901652813
-0.1599019318819046 -0.1905634105205536 0.010861228220164776
-0.1584300994873047 -0.190491184592247 0.010817608796060085
-0.15442004799842834 -0.18732620775699615 0.010599511675536633
-0.15486542880535126 -0.18954549729824066 0.010686749592423439
-0.1565518081188202 -0.19332504272460938 0.010861228220164776
-0.15508145093917847 -0.1932271420955658 0.010817608796060085
-0.1523710936307907 -0.19155637919902802 0.010686749592423439
-0.1533893495798111 -0.19457310438156128 0.010817608796060085
-0.15438415110111237 -0.197602316737175 0.010948467068374157
-0.1529088318347931 -0.1974841058254242 0.010904846712946892
-0.15326206386089325 -0.1997346132993698 0.010992085561156273
-0.15238910913467407 -0.2004014402627945 0.010992085561156273
-0.1515132486820221 -0.20106443762779236 0.010992085561156273
-0.1560143232345581 -0.20892804861068726 0.011384660378098488
-0.1539127081632614 -0.20800061523914337 0.011297421529889107
-0.15418517589569092 -0.21028155088424683 0.011384660378098488
-0.1550278514623642 -0.21337702870368958 0.011515517719089985
-0.15117689967155457 -0.20999744534492493 0.011297421529889107
-0.14735841751098633 -0.20658835768699646 0.011079324409365654
-0.145302414894104 -0.2055976241827011 0.010992085561156273
-0.1478421539068222 -0.21113991737365723 0.011253802105784416
-0.145780548453331 -0.21014124155044556 0.011166563257575035
-0.1420329213142395 -0.20665863156318665 0.010948467068374157
-0.14394120872020721 -0.21140538156032562 0.011166563257575035
-0.141341432929039 -0.20954670011997223 0.011035705916583538
-0.13765056431293488 -0.20600803196430206 0.010817608796060085
-0.13675038516521454 -0.2066066712141037 0.010817608796060085
-0.137490913271904 -0.2097078561782837 0.010948467068374157
-0.13711871206760406 -0.2111436426639557 0.010992085561156273
-0.13619612157344818 -0.2117399126291275 0.010992085561156273
-0.1363445222377777 -0.2140173316001892 0.011079324409365654
-0.1348763108253479 -0.21376529335975647 0.011035705916583538
-0.13129521906375885 -0.21011556684970856 0.010817608796060085
-0.13142859935760498 -0.21238552033901215 0.010904846712946892
-0.13154466450214386 -0.2146606147289276 0.010992085561156273
-0.13008850812911987 -0.2143784463405609 0.010948467068374157
-0.12812277674674988 -0.21323132514953613 0.010861228220164776
-0.12770196795463562 -0.21464690566062927 0.010904846712946892
-0.1257500797510147 -0.21348045766353607 0.010817608796060085
-0.12431411445140839 -0.2131640911102295 0.010773989371955395
-0.12388236075639725 -0.21456968784332275 0.010817608796060085
-0.12294495105743408 -0.21510817110538483 0.010817608796060085
-0.12298911064863205 -0.21738161146640778 0.010904846712946892
-0.12155129015445709 -0.21704453229904175 0.010861228220164776
-0.11769700795412064 -0.21233010292053223 0.010599511675536633
-0.11676942557096481 -0.21284162998199463 0.010599511675536633
-0.11631633341312408 -0.2142270803451538 0.010643131099641323
-0.11585335433483124 -0.21561260521411896 0.010686749592423439
-0.11538050323724747 -0.2169981598854065 0.01073036901652813
-0.11489775776863098 -0.21838368475437164 0.010773989371955395
-0.11486642062664032 -0.22065527737140656 0.010861228220164776
-0.11390253901481628 -0.2211543619632721 0.010861228220164776
-0.1111222505569458 -0.21808861196041107 0.010686749592423439
-0.10971994698047638 -0.21767927706241608 0.010643131099641323
-0.10921487212181091 -0.21905000507831573 0.010686749592423439
-0.10825805366039276 -0.21952445805072784 0.010686749592423439
-0.1064232736825943 -0.21819886565208435 0.010599511675536633
-0.1054701954126358 -0.2186611443758011 0.010599511675536633
-0.10451511293649673 -0.21911926567554474 0.010599511675536633
-0.1027057096362114 -0.21776601672172546 0.010512272827327251
-0.10217677056789398 -0.21911752223968506 0.010555892251431942
-0.10121972858905792 -0.21956126391887665 0.010555892251431942
-0.09984645247459412 -0.2190917283296585 0.010512272827327251
-0.09971020370721817 -0.22134709358215332 0.010599511675536633
-0.09874345362186432 -0.22178004682064056 0.010599511675536633
-0.09737245738506317 -0.2212943434715271 0.010555892251431942
-0.09680433571338654 -0.22263328731060028 0.010599511675536633
-0.09583199769258499 -0.22305354475975037 0.010599511675536633
-0.09446748346090317 -0.2225499451160431 0.010555892251431942
-0.09272284060716629 -0.22111736238002777 0.010468653403222561
-0.0925218015909195 -0.22336584329605103 0.010555892251431942
-0.09230289608240128 -0.2256167232990265 0.010643131099641323
-0.0909433364868164 -0.22509102523326874 0.010599511675536633
-0.08996033668518066 -0.225485697388649 0.010599511675536633
-0.08824330568313599 -0.22401700913906097 0.010512272827327251
-0.0872650220990181 -0.22439990937709808 0.010512272827327251
-0.08735915273427963 -0.2275765985250473 0.010643131099641323
-0.0860113874077797 -0.22702136635780334 0.010599511675536633
-0.08432025462388992 -0.2255229353904724 0.010512272827327251
-0.08368122577667236 -0.2268259972333908 0.010555892251431942
-0.0823490247130394 -0.22625017166137695 0.010512272827327251
-0.0810234472155571 -0.2256670445203781 0.010468653403222561
-0.08037152141332626 -0.2269601672887802 0.010512272827327251
-0.07970984280109406 -0.2282518893480301 0.010555892251431942
-0.07871315628290176 -0.2285975068807602 0.010555892251431942
-0.07739382982254028 -0.22799275815486908 0.010512272827327251
-0.07671530544757843 -0.2292756885290146 0.010555892251431942
-0.07571417838335037 -0.22960823774337769 0.010555892251431942
-0.07502033561468124 -0.2308865636587143 0.010599511675536633
-0.07248931378126144 -0.2264542430639267 0.01038141455501318
-0.07210138440132141 -0.2286740094423294 0.010468653403222561
-0.07258423417806625 -0.23375697433948517 0.010686749592423439
-0.07127150148153305 -0.23311607539653778 0.010643131099641323
-0.06996574997901917 -0.23246817290782928 0.010599511675536633
-0.06951825320720673 -0.23468704521656036 0.010686749592423439
-0.06933228671550751 -0.23786555230617523 0.010817608796060085
-0.06774298846721649 -0.23624509572982788 0.01073036901652813
-0.06589798629283905 -0.23365382850170135 0.010599511675536633
-0.06487786024808884 -0.23393914103507996 0.010599511675536633
-0.06333093345165253 -0.2322922646999359 0.010512272827327251
-0.06283392757177353 -0.23449638485908508 0.010599511675536633
-0.06181015074253082 -0.2347683161497116 0.010599511675536633
-0.0607852041721344 -0.23503577709197998 0.010599511675536633
-0.059759095311164856 -0.2352987676858902 0.010599511675536633
-0.05873185023665428 -0.23555727303028107 0.010599511675536633
-0.05841587483882904 -0.2387225329875946 0.01073036901652813
-0.05714047700166702 -0.2380037009716034 0.010686749592423439
-0.05610145628452301 -0.2382507473230362 0.010686749592423439
-0.0541624091565609 -0.2345995157957077 0.010512272827327251
-0.052256304770708084 -0.2309359610080719 0.01033779513090849
-0.05146440118551254 -0.23213711380958557 0.01038141455501318
-0.04875519871711731 -0.2245490550994873 0.010032459162175655
-0.04611322656273842 -0.2169419378042221 0.009683504700660706
-0.04435240477323532 -0.21322862803936005 0.009509027004241943
-0.04441751167178154 -0.21831507980823517 0.009727123193442822
-0.0426848866045475 -0.21458740532398224 0.009552646428346634
-0.03869808092713356 -0.19908052682876587 0.008854735642671585
-0.3894716799259186 -2.051365852355957 0.09116452187299728
-0.3890743553638458 -2.099214553833008 0.09321463108062744
-0.38666674494743347 -2.1382501125335693 0.09487217664718628
-0.3842727541923523 -2.179271936416626 0.0966169461607933
-0.3816971480846405 -2.221296787261963 0.09840533882379532
-0.3784322142601013 -2.2613697052001953 0.10010649263858795
-0.3733794391155243 -2.292581081390381 0.10141507536172867
-0.3674362301826477 -2.3198440074920654 0.10254918038845062
-0.359286367893219 -2.334261655807495 0.1031162366271019
-0.7667158842086792 -5.130080699920654 0.22647187113761902
-0.7434644103050232 -5.127444744110107 0.22621016204357147
-0.7201115489006042 -5.123714923858643 0.22590482234954834
-0.697074830532074 -5.121858596801758 0.225686714053154
-0.6741983890533447 -5.120889186859131 0.22551223635673523
-0.6509655117988586 -5.116844654083252 0.2252068966627121
-0.6283895969390869 -5.1176533699035645 0.2251196652650833
-0.6057015657424927 -5.117370128631592 0.22498881816864014
-0.5825755000114441 -5.113015651702881 0.2246834635734558
-0.5591727495193481 -5.1055779457092285 0.2242472767829895
-0.5360549092292786 -5.100020408630371 0.22389833629131317
-0.5132964849472046 -5.097341060638428 0.22368022799491882
-0.4905715882778168 -5.094559192657471 0.22346211969852448
-0.4677893817424774 -5.090682029724121 0.22320041060447693
-0.44513750076293945 -5.087698936462402 0.22298233211040497
-0.42285141348838806 -5.088596343994141 0.2229386866092682
-0.40048763155937195 -5.0884013175964355 0.2228514552116394
-0.37754127383232117 -5.080137729644775 0.2224152684211731
-0.35516247153282166 -5.078746318817139 0.22228440642356873
-0.33273768424987793 -5.076260089874268 0.22210991382598877
-0.310219407081604 -5.071681022644043 0.22184821963310242
-0.2878606915473938 -5.068996429443359 0.22167374193668365
-0.2655836343765259 -5.067211151123047 0.22154287993907928
-0.2433755248785019 -5.066325664520264 0.2214556336402893
-0.2210494726896286 -5.06234884262085 0.22123752534389496
-0.19868430495262146 -5.056277275085449 0.22093220055103302
-0.17623686790466309 -5.04611349105835 0.22045239806175232
-0.15400397777557373 -5.039844512939453 0.2201470583677292
-0.1318291425704956 -5.033477306365967 0.21984173357486725
-0.10993077605962753 -5.037001132965088 0.21997258067131042
-0.08791698515415192 -5.035435199737549 0.21988534927368164
-0.0658012107014656 -5.024781703948975 0.21940553188323975
-0.04383241757750511 -5.020026206970215 0.2191874235868454
-0.021932559087872505 -5.0211687088012695 0.2192310392856598
-2.3587377654621378e-05 -5.026211738586426 0.21944914758205414
0.021911559626460075 -5.027163028717041 0.21949276328086853
0.043785300105810165 -5.020026683807373 0.2191874235868454
0.013556054793298244 -1.0359244346618652 0.04523330554366112
0.01798880472779274 -1.0308609008789062 0.045015208423137665
0.022551940754055977 -1.033769130706787 0.045146070420742035
0.027088500559329987 -1.034659504890442 0.04518968611955643
0.031541746109724045 -1.0325343608856201 0.045102447271347046
0.03604668751358986 -1.0323868989944458 0.045102447271347046
0.04109998792409897 -1.04619562625885 0.04571312293410301
0.05215680971741676 -1.1947227716445923 0.05221240594983101
0.06858427077531815 -1.4279921054840088 0.0624193474650383
0.07617365568876266 -1.4536187648773193 0.06355344504117966
0.08268538862466812 -1.456264853477478 0.06368430703878403
0.0890996903181076 -1.4568874835968018 0.06372793018817902
0.0949983075261116 -1.4495065212249756 0.06342259049415588
0.34835538268089294 -4.9820780754089355 0.21805331110954285
0.37023836374282837 -4.982503890991211 0.21814057230949402
0.391896516084671 -4.979844570159912 0.21809694170951843
0.41353854537010193 -4.9770917892456055 0.21805331110954285
0.4354252517223358 -4.977230548858643 0.21814057230949402
0.45695531368255615 -4.973293304443359 0.21805331110954285
0.47836363315582275 -4.968268871307373 0.21792246401309967
0.5000370740890503 -4.966134548187256 0.21792246401309967
0.521909773349762 -4.965892314910889 0.21800969541072845
0.5433549284934998 -4.961581707000732 0.21792246401309967
0.5649985671043396 -4.959163665771484 0.21792246401309967
0.5865139961242676 -4.95565938949585 0.21787884831428528
0.6082531213760376 -4.954044342041016 0.21792246401309967
0.3134187161922455 -2.4637789726257324 0.10843779891729355
0.32507866621017456 -2.4693214893341064 0.10874313116073608
0.3361193835735321 -2.4698593616485596 0.10883037745952606
0.34411218762397766 -2.448582887649536 0.10795798897743225
0.2854110598564148 -1.9685221910476685 0.08684620261192322
0.2750966548919678 -1.8407844305038452 0.08126291632652283
0.28130224347114563 -1.827717661857605 0.08073949068784714
0.28896185755729675 -1.8244993686676025 0.08065225183963776
0.29756224155426025 -1.8271653652191162 0.08082672208547592
0.30454257130622864 -1.8199375867843628 0.08056501299142838
0.8394848704338074 -4.885679721832275 0.2164394110441208
0.8653049468994141 -4.907551288604736 0.21757352352142334
0.8872429728507996 -4.906677722930908 0.21770437061786652
0.8924408555030823 -4.815333843231201 0.21382224559783936
0.914002001285553 -4.814338207244873 0.21395310759544373
0.9529179930686951 -4.902489185333252 0.21805331110954285
0.9742999076843262 -4.898284912109375 0.21805331110954285
0.9970574378967285 -4.900839805603027 0.21835865080356598
1.0198557376861572 -4.903289794921875 0.2186639904975891
1.0412404537200928 -4.8987932205200195 0.2186639904975891
1.0632413625717163 -4.897132396697998 0.21879485249519348
1.08524751663208 -4.89537239074707 0.21892569959163666
1.107038140296936 -4.8925395011901855 0.21901296079158783
1.1283750534057617 -4.887662887573242 0.21901296079158783
1.1499196290969849 -4.883665084838867 0.21905657649040222
1.1721502542495728 -4.882486820220947 0.2192310392856598
1.1939177513122559 -4.87926721572876 0.21931828558444977
1.2151960134506226 -4.874011039733887 0.21931828558444977
1.236943006515503 -4.870599269866943 0.21940553188323975
1.2591835260391235 -4.869024753570557 0.2195800095796585
1.2814338207244873 -4.8673481941223145 0.21975447237491608
1.3031765222549438 -4.863641262054443 0.21984173357486725
1.3251738548278809 -4.860800266265869 0.21997258067131042
1.3474382162094116 -4.858822822570801 0.2201470583677292
1.3694392442703247 -4.855781555175781 0.22027790546417236
1.0918381214141846 -3.8077821731567383 0.172950878739357
1.101732850074768 -3.7799627780914307 0.17190401256084442
1.1142430305480957 -3.7617087364196777 0.17129334807395935
1.1269029378890991 -3.7443745136260986 0.17072629928588867
1.1143133640289307 -3.6448378562927246 0.166407972574234
1.0753992795944214 -3.4634299278259277 0.15833838284015656
1.0775831937789917 -3.417733907699585 0.15646274387836456
1.098881483078003 -3.432981014251709 0.15737876296043396
1.1400909423828125 -3.5089163780212402 0.16108639538288116
1.2073252201080322 -3.6614089012145996 0.1683272272348404
1.2394561767578125 -3.7044243812561035 0.17055180668830872
1.2559291124343872 -3.69992733001709 0.1705954372882843
1.2762892246246338 -3.7066922187805176 0.17116248607635498
1.2993671894073486 -3.720895290374756 0.17207849025726318
1.3182580471038818 -3.722724199295044 0.1724274456501007
1.3331384658813477 -3.7131757736206055 0.17225296795368195
1.3513774871826172 -3.712956428527832 0.1725146770477295
1.3713688850402832 -3.717334747314453 0.1729944944381714
1.39177405834198 -3.7225451469421387 0.17351792752742767
1.4140204191207886 -3.7323191165924072 0.17425945401191711
1.4277859926223755 -3.7195849418640137 0.17395411431789398
1.407069206237793 -3.618345260620117 0.16950494050979614
1.3891582489013672 -3.526654005050659 0.1654919534921646
1.3889844417572021 -3.481586217880249 0.1636599451303482
1.3959290981292725 -3.4551141262054443 0.1627003252506256
1.4026691913604736 -3.428647756576538 0.16174069046974182
1.4164690971374512 -3.4197258949279785 0.16160982847213745
1.436012864112854 -3.4245688915252686 0.16213327646255493
1.4489898681640625 -3.4136722087860107 0.16191516816616058
1.4658427238464355 -3.4119069576263428 0.16213327646255493
1.4839026927947998 -3.4128081798553467 0.16248221695423126
1.4991819858551025 -3.4072153568267822 0.16252583265304565
2.1137967109680176 -4.747755527496338 0.22690805792808533
2.138185501098633 -4.74668550491333 0.22730064392089844
2.160947561264038 -4.741856098175049 0.2275187224149704
2.184126615524292 -4.737825870513916 0.22778044641017914
2.2073116302490234 -4.7336835861206055 0.22804215550422668
2.232632637023926 -4.733946800231934 0.22852198779582977
2.2571377754211426 -4.732275485992432 0.2289145439863205
2.2812366485595703 -4.729580879211426 0.22926349937915802
2.305793285369873 -4.727663993835449 0.22965608537197113
2.328608751296997 -4.722038269042969 0.22987419366836548
2.3514187335968018 -4.716302871704102 0.23009227216243744
2.3769214153289795 -4.715811729431152 0.23057208955287933
2.4709508419036865 -4.849602222442627 0.2376384437084198
0.0 -0.0 0.0
2.1146109104156494 -4.062203407287598 0.19995127618312836
2.130919933319092 -4.050285816192627 0.19982042908668518
2.1570146083831787 -4.056827545166016 0.2006055861711502
2.183206558227539 -4.063217639923096 0.20139071345329285
2.211879014968872 -4.07384729385376 0.20239396393299103
2.239243745803833 -4.0816755294799805 0.20326635241508484
2.2662346363067627 -4.088468074798584 0.20409512519836426
2.2933268547058105 -4.095102787017822 0.20492389798164368
2.320028066635132 -4.100708484649658 0.20570902526378632
2.3463261127471924 -4.105292320251465 0.20645056664943695
2.374206781387329 -4.112319469451904 0.20732295513153076
2.403702974319458 -4.121769905090332 0.20832619071006775
2.431805372238159 -4.1284589767456055 0.20919857919216156
2.459501028060913 -4.134122371673584 0.21002735197544098
2.487806797027588 -4.140478610992432 0.2108997404575348
2.516214609146118 -4.146666049957275 0.2117721289396286
2.545246124267578 -4.153536796569824 0.212688148021698
2.5764873027801514 -4.16363000869751 0.21377861499786377
2.606806516647339 -4.171835422515869 0.21478186547756195
2.6367125511169434 -4.179009437561035 0.21574148535728455
2.6688780784606934 -4.189372539520264 0.2168755978345871
2.699022054672241 -4.196173191070557 0.2178352326154709
2.7303640842437744 -4.204465389251709 0.21888208389282227
2.7618298530578613 -4.212563991546631 0.21992896497249603
2.7934179306030273 -4.220467567443848 0.2209758311510086
2.8245720863342285 -4.227344512939453 0.2219790667295456
2.856398105621338 -4.23485803604126 0.22302594780921936
2.8889052867889404 -4.24299955368042 0.22411641478538513
2.9232354164123535 -4.253407955169678 0.22533777356147766
2.97023868560791 -4.281655788421631 0.2275187224149704
3.0169708728790283 -4.308755397796631 0.22965608537197113
3.0242106914520264 -4.279233455657959 0.22878369688987732
3.038212299346924 -4.259490489959717 0.228434756398201
3.0596868991851807 -4.250247001647949 0.22865283489227295
3.081139087677002 -4.2408976554870605 0.2288709282875061
3.100795269012451 -4.229024410247803 0.2289581596851349
3.122189521789551 -4.219470024108887 0.22917626798152924
3.1447548866271973 -4.2114105224609375 0.22948160767555237
3.166106700897217 -4.201638698577881 0.22969970107078552
3.186828374862671 -4.190965175628662 0.22987419366836548
3.208125114440918 -4.18098258972168 0.23009227216243744
3.230618715286255 -4.172474384307861 0.23039759695529938
3.253099203109741 -4.163849353790283 0.2307029366493225
3.274947166442871 -4.154323101043701 0.23096466064453125
3.29677414894104 -4.1446852684021 0.2312263697385788
3.319204330444336 -4.135715007781982 0.23153170943260193
3.3403618335723877 -4.125075340270996 0.23174981772899628
3.362121343612671 -4.115103244781494 0.23201152682304382
3.384493112564087 -4.105790138244629 0.23231686651706696
3.4074859619140625 -4.097128391265869 0.2326658070087433
3.4291834831237793 -4.086813449859619 0.23292753100395203
3.4502103328704834 -4.075624942779541 0.23314563930034637
3.4705560207366943 -4.063570499420166 0.23332011699676514
3.479775905609131 -4.038549900054932 0.23275306820869446
3.3806982040405273 -3.8891170024871826 0.22498881816864014
3.11899995803833 -3.55660080909729 0.20653779804706573
3.1007275581359863 -3.5047969818115234 0.20431320369243622
0.0 -0.0 0.0
0.0 -0.0 0.0
0.0 -0.0 0.0
0.0 -0.0 0.0
0.0 -0.0 0.0
0.0 -0.0 0.0
0.0 -0.0 0.0
3.005218029022217 -3.166896104812622 0.19061674177646637
3.0210800170898438 -3.1559183597564697 0.19074758887290955
0.0 -0.0 0.0
0.0 -0.0 0.0
0.0 -0.0 0.0
0.0 -0.0 0.0
0.0 -0.0 0.0
0.0 -0.0 0.0
0.0 -0.0 0.0
0.0 -0.0 0.0
0.0 -0.0 0.0
0.0 -0.0 0.0
0.0 -0.0 0.0
0.0 -0.0 0.0
0.0 -0.0 0.0
0.0 -0.0 0.0
0.0 -0.0 0.0
3.4468438625335693 -3.1309516429901123 0.20330996811389923
3.4730937480926514 -3.127246856689453 0.20405150949954987
0.0 -0.0 0.0
1.9027657508850098 -1.6834571361541748 0.11092410981655121
1.9123462438583374 -1.6771148443222046 0.11105495691299438
1.9105981588363647 -1.6608896255493164 0.1105315312743187
1.9117720127105713 -1.647320032119751 0.11018257588148117
1.921980381011963 -1.641558289527893 0.11035706102848053
1.9367496967315674 -1.6396116018295288 0.11079324781894684
1.948477029800415 -1.6349983215332031 0.11105495691299438
4.081704139709473 -3.3947842121124268 0.23179343342781067
4.095706939697266 -3.3763067722320557 0.23174981772899628
4.104210376739502 -3.353347063064575 0.23140086233615875
4.111039161682129 -3.329119920730591 0.23096466064453125
4.12396764755249 -3.3099000453948975 0.23087742924690247
4.135242938995361 -3.289386749267578 0.2307029366493225
4.14171028137207 -3.265127182006836 0.2302667498588562
4.151981353759766 -3.2439491748809814 0.23004865646362305
1.8413293361663818 -1.4257384538650513 0.10167679190635681
1.8570438623428345 -1.4249889850616455 0.1022002324461937
1.8568817377090454 -1.4120347499847412 0.10185126960277557
1.855844497680664 -1.398508071899414 0.10145870596170425
1.860327959060669 -1.3892016410827637 0.10137145966291428
1.8703869581222534 -1.384042501449585 0.10158955305814743
1.8933273553848267 -1.3882741928100586 0.10250556468963623
1.9753413200378418 -1.4351997375488281 0.10660578310489655
2.1753647327423096 -1.5660717487335205 0.11703082174062729
2.217150926589966 -1.5815119743347168 0.11890645325183868
2.2321889400482178 -1.5775889158248901 0.11934264749288559
2.2333226203918457 -1.5638229846954346 0.11903730779886246
5.855188846588135 -4.061976909637451 0.3111371099948883
5.896733283996582 -4.05280065536499 0.31240206956863403
5.93913459777832 -4.043901443481445 0.31371065974235535
5.983226299285889 -4.035826206207275 0.31510648131370544
6.026529312133789 -4.0268874168396 0.31645864248275757
6.0707011222839355 -4.018199443817139 0.31785449385643005
6.113240718841553 -4.008106231689453 0.31916308403015137
6.159996032714844 -4.000438690185547 0.32068973779678345
2.153517246246338 -1.3852204084396362 0.11179649829864502
2.146901845932007 -1.3677586317062378 0.11114220321178436
2.1444003582000732 -1.3530470132827759 0.11070600897073746
2.144352912902832 -1.3399715423583984 0.11040067672729492
2.150179147720337 -1.3306022882461548 0.11040067672729492
2.165334463119507 -1.3269498348236084 0.11088048666715622
2.1796445846557617 -1.3226721286773682 0.11131668090820312
2.182826042175293 -1.311605453491211 0.11118581891059875
6.375838279724121 -3.793316125869751 0.32391756772994995
9.109025955200195 -5.365756034851074 0.46158039569854736
6.992090702056885 -4.077766418457031 0.35340428352355957
7.006356239318848 -4.045220851898193 0.353229820728302
7.013531684875488 -4.008662700653076 0.3527063727378845
10.755989074707031 -6.085597515106201 0.5395718812942505
10.827766418457031 -6.063992500305176 0.5418400764465332
6.763073444366455 -3.748927593231201 0.3376140594482422
5.5250959396362305 -3.0312488079071045 0.2751511037349701
5.5488057136535645 -3.0128328800201416 0.2756745219230652
5.584779739379883 -3.000887870788574 0.27680864930152893
5.626930236816406 -2.991969347000122 0.2782480716705322
5.6664557456970215 -2.981344223022461 0.27955666184425354
5.705995082855225 -2.970430850982666 0.28086525201797485
5.745546817779541 -2.959228992462158 0.28217384219169617
5.782438278198242 -2.9463775157928467 0.2833515405654907
5.82200288772583 -2.9346094131469727 0.28466013073921204
5.8633623123168945 -2.923443078994751 0.28605595231056213
5.904735088348389 -2.9119715690612793 0.28745177388191223
5.946118354797363 -2.9001944065093994 0.28884759545326233
5.98751163482666 -2.8881115913391113 0.2902434170246124
6.030714511871338 -2.876582384109497 0.2917264699935913
6.0721235275268555 -2.8638787269592285 0.2931222915649414
6.117157936096191 -2.8525569438934326 0.29469260573387146
6.1613006591796875 -2.8404781818389893 0.29621925950050354
6.204544544219971 -2.8276538848876953 0.2977023422718048
6.248704433441162 -2.8149161338806152 0.2992289960384369
6.300172805786133 -2.805098056793213 0.3011046350002289
6.3489298820495605 -2.7936766147613525 0.3028494119644165
6.391293048858643 -2.7790942192077637 0.3042888641357422
6.434566974639893 -2.764589309692383 0.30577191710472107
6.464041709899902 -2.743903875350952 0.3066006898880005
6.4824018478393555 -2.7183775901794434 0.3069060146808624
6.501585006713867 -2.6931254863739014 0.30725497007369995
6.519746780395508 -2.66737961769104 0.3075602948665619
6.538733959197998 -2.6419007778167725 0.3079092800617218
6.556694507598877 -2.615936517715454 0.30821460485458374
6.575482368469238 -2.5902318954467773 0.30856356024742126
6.591377258300781 -2.563326835632324 0.3087816536426544
6.609027862548828 -2.537048578262329 0.30908700823783875
6.629377365112305 -2.5117266178131104 0.30952316522598267
6.646823883056641 -2.4852259159088135 0.309828519821167
6.666977882385254 -2.459657907485962 0.3102647066116333
6.68515682220459 -2.4332780838012695 0.3106136620044708
6.701352119445801 -2.406111240386963 0.31087538599967957
6.722146511077881 -2.380516767501831 0.31135520339012146
6.740957736968994 -2.3541276454925537 0.3117477595806122
6.759666919708252 -2.327619791030884 0.3121403455734253
6.777327060699463 -2.3006722927093506 0.3124893009662628
6.7967753410339355 -2.2742488384246826 0.3129254877567291
6.814223766326904 -2.2470736503601074 0.31327444314956665
6.8306145668029785 -2.2194807529449463 0.3135797679424286
6.8497490882873535 -2.1927013397216797 0.3140159845352173
6.87068510055542 -2.166398048400879 0.31453943252563477
6.89152193069458 -2.139953851699829 0.31506285071372986
6.91130256652832 -2.113076686859131 0.31554266810417175
6.92715311050415 -2.08491587638855 0.3158479928970337
6.943848133087158 -2.056940793991089 0.3161969482898712
6.9585113525390625 -2.0283002853393555 0.31645864248275757
6.967295169830322 -1.9979188442230225 0.31645864248275757
8.872096061706543 -2.5022902488708496 0.40247610211372375
8.963798522949219 -2.4859824180603027 0.40614014863967896
9.11624813079834 -2.4854769706726074 0.4125521779060364
9.255352020263672 -2.480067729949951 0.4183535575866699
3.7108781337738037 -0.9770342111587524 0.16754207015037537
3.721876621246338 -0.9625842571258545 0.1678474098443985
3.7192628383636475 -0.9446138143539429 0.16754207015037537
3.7320735454559326 -0.9305518865585327 0.16793464124202728
3.7448320388793945 -0.9163960218429565 0.1683272272348404
3.7497663497924805 -0.9002806544303894 0.16837084293365479
9.188684463500977 -2.1637492179870605 0.41215959191322327
9.135738372802734 -2.1092517375946045 0.40936794877052307
9.123417854309082 -2.064518690109253 0.40840834379196167
9.087471961975098 -2.0147433280944824 0.4064018428325653
9.006356239318848 -1.955569863319397 0.40238887071609497
8.988419532775879 -1.9106452465057373 0.4012111723423004
8.787354469299316 -1.8278676271438599 0.39187657833099365
8.707137107849121 -1.7715812921524048 0.3879508376121521
8.645215034484863 -1.7197335958480835 0.3848538398742676
8.5967378616333 -1.6711292266845703 0.3823675811290741
8.60983657836914 -1.634721040725708 0.38262927532196045
8.663055419921875 -1.6056954860687256 0.38467937707901
8.729948997497559 -1.5787253379821777 0.38734015822410583
8.730851173400879 -1.5395779609680176 0.3870784640312195
8.698101043701172 -1.4946999549865723 0.38533368706703186
4.214321613311768 -0.7052804827690125 0.18656013906002045
4.212428569793701 -0.6860823035240173 0.1863420307636261
4.206501007080078 -0.6662889122962952 0.185949444770813
4.205419063568115 -0.6473203897476196 0.18577498197555542
4.220060348510742 -0.6307368278503418 0.1862984150648117
4.243535041809082 -0.6153280138969421 0.1872144192457199
8.623937606811523 -1.2121062278747559 0.380230188369751
8.616275787353516 -1.172714352607727 0.3796631693840027
8.599519729614258 -1.132238507270813 0.3787035346031189
8.570682525634766 -1.0904183387756348 0.37722048163414
8.57734203338623 -1.0532549619674683 0.3773077130317688
8.612611770629883 -1.019459843635559 0.3786599338054657
8.637823104858398 -0.9842459559440613 0.3795759379863739
8.797953605651855 -0.9636245369911194 0.38642415404319763
9.077295303344727 -0.9541568756103516 0.398506760597229
9.105228424072266 -0.9169432520866394 0.3995536267757416
9.105164527893066 -0.8768224716186523 0.39937910437583923
9.096964836120605 -0.8359884023666382 0.39885568618774414
9.050765037536621 -0.791933536529541 0.3966747522354126
8.890852928161621 -0.7388653755187988 0.38952115178108215
8.689818382263184 -0.6839938759803772 0.3805791735649109
8.60006332397461 -0.6391845345497131 0.3765225410461426
3.2948055267333984 -0.2304294854402542 0.144205704331398
3.2987704277038574 -0.216247096657753 0.14433656632900238
3.2956936359405518 -0.20160746574401855 0.14416207373142242
3.297539472579956 -0.18728207051753998 0.144205704331398
3.305309295654297 -0.17325818538665771 0.14451104402542114
3.291064977645874 -0.15811529755592346 0.14385674893856049
5.448611259460449 -0.23794792592525482 0.2381182312965393
5.6093220710754395 -0.22044892609119415 0.245097354054451
5.605238437652588 -0.19579721987247467 0.24487924575805664
8.593795776367188 -0.262653112411499 0.3753884434700012
8.724691390991211 -0.22855432331562042 0.3810589611530304
8.783538818359375 -0.19174832105636597 0.38358891010284424
8.980074882507324 -0.15684063732624054 0.3921383321285248
9.009642601013184 -0.11803583055734634 0.3934032618999481
9.007076263427734 -0.07869666814804077 0.39327242970466614
9.002338409423828 -0.03937341645359993 0.393054336309433
8.996429443359375 -9.299383236793801e-05 0.39279258251190186
8.989351272583008 0.03913076967000961 0.3924872577190399
8.97510814666748 0.0782318040728569 0.39187657833099365
3.781074047088623 0.04945787787437439 0.1650993824005127
3.782820224761963 0.06599025428295135 0.16518662869930267
3.778501033782959 0.082408107817173 0.1650121510028839
3.779104232788086 0.09892022609710693 0.1650557667016983
3.792616605758667 0.11583566665649414 0.16566643118858337
5.421529769897461 0.18926787376403809 0.23685328662395477
5.535453796386719 0.21743126213550568 0.2418695092201233
0.0 0.0 0.0
0.0 0.0 0.0
0.0 0.0 0.0
0.0 0.0 0.0
0.0 0.0 0.0
0.0 0.0 0.0
0.0 0.0 0.0
8.804320335388184 0.654182493686676 0.38546454906463623
8.882054328918457 0.6989404559135437 0.3889977037906647
8.865978240966797 0.7366136312484741 0.388430655002594
8.868650436401367 0.7758139371871948 0.38869237899780273
8.873140335083008 0.8152344822883606 0.38904133439064026
6.7453532218933105 0.6494331955909729 0.2958703339099884
6.757365703582764 0.6803603172302246 0.29652461409568787
6.752345561981201 0.709629476070404 0.2964373826980591
6.7442193031311035 0.7385414838790894 0.29621925950050354
6.737954616546631 0.7676222920417786 0.29608839750289917
6.734540939331055 0.7970147132873535 0.29608839750289917
6.728024959564209 0.8260267972946167 0.2959575653076172
6.720392227172852 0.8548711538314819 0.29578307271003723
6.713626861572266 0.8837950229644775 0.29565221071243286
6.707726955413818 0.9128108620643616 0.2955649793148041
6.702690601348877 0.9419310092926025 0.2955213487148285
6.695550918579102 0.9707379937171936 0.2953904867172241
6.692239284515381 1.0000911951065063 0.2954341173171997
6.6887993812561035 1.0294339656829834 0.2954777479171753
6.680297374725342 1.057984471321106 0.29530325531959534
6.674631595611572 1.086962103843689 0.29525965452194214
6.671795845031738 1.1164050102233887 0.2953468859195709
6.663906574249268 1.1449979543685913 0.29521602392196655
6.657863616943359 1.173890233039856 0.29517239332199097
6.653661251068115 1.203107237815857 0.29521602392196655
6.647366046905518 1.2319457530975342 0.29517239332199097
6.639964580535889 1.2605658769607544 0.2950851619243622
6.633420467376709 1.2893354892730713 0.295041561126709
6.628711223602295 1.3184618949890137 0.2950851619243622
6.61995792388916 1.346774935722351 0.2949542999267578
6.613040447235107 1.3754435777664185 0.2949106693267822
6.6079535484313965 1.404492974281311 0.2949542999267578
6.601762294769287 1.433312177658081 0.2949542999267578
6.596421241760254 1.4623204469680786 0.2949979305267334
6.591926574707031 1.4915297031402588 0.2950851619243622
6.582435131072998 1.5196038484573364 0.2949542999267578
6.574769496917725 1.5480817556381226 0.2949106693267822
6.566009521484375 1.5762883424758911 0.29482343792915344
6.542572021484375 1.6008862257003784 0.2940818965435028
6.514198303222656 1.6241012811660767 0.2931222915649414
6.4915571212768555 1.6485748291015625 0.29242438077926636
6.46108865737915 1.6708805561065674 0.2913775146007538
6.430549144744873 1.692952036857605 0.2903306484222412
6.405731201171875 1.71634042263031 0.2895455062389374
6.3798675537109375 1.7392815351486206 0.28871673345565796
6.353926181793213 1.762029767036438 0.28788796067237854
6.326946258544922 1.7843137979507446 0.2870155870914459
6.299893856048584 1.8063958883285522 0.2861431837081909
6.272768974304199 1.8282761573791504 0.2852708101272583
6.2474894523620605 1.8505215644836426 0.28448566794395447
6.219265937805176 1.8717175722122192 0.28356966376304626
6.190976619720459 1.892702579498291 0.28265365958213806
6.167393207550049 1.9149577617645264 0.2819557189941406
6.140875339508057 1.9361419677734375 0.2811269462108612
6.119048118591309 1.9586542844772339 0.28051629662513733
6.091440677642822 1.9791606664657593 0.2796438932418823
6.062822341918945 1.9991507530212402 0.2787278890609741
6.036987781524658 2.0198795795440674 0.2779427468776703
6.0120344161987305 2.0407426357269287 0.27720123529434204
5.988903045654297 2.0620768070220947 0.2765469253063202
5.964757919311523 2.082918882369995 0.27584901452064514
5.940544605255127 2.1035895347595215 0.2751511037349701
5.915324687957764 2.123750925064087 0.27440959215164185
5.857184410095215 2.1317737102508545 0.27214136719703674
0.0 0.0 0.0
5.043877601623535 1.8857704401016235 0.23510850965976715
4.985151767730713 1.888647437095642 0.23275306820869446
7.470890998840332 2.867719888687134 0.34939131140708923
7.375437259674072 2.868065118789673 0.3455091714859009
7.1388349533081055 2.811978578567505 0.33499690890312195
7.030920028686523 2.8049705028533936 0.33050408959388733
6.900047779083252 2.787719249725342 0.3249208331108093
8.521697998046875 3.4862186908721924 0.40199628472328186
6.501640796661377 2.692991018295288 0.30725497007369995
6.460346221923828 2.7089717388153076 0.30585917830467224
6.4420270919799805 2.7344017028808594 0.3055538237094879
6.388728618621826 2.7447383403778076 0.30359095335006714
6.162302494049072 2.6793718338012695 0.29338401556015015
6.019787311553955 2.6486976146698 0.2871464192867279
6.009998321533203 2.6757514476776123 0.2872336804866791
7.184256076812744 3.23618483543396 0.344026118516922
5.818235874176025 2.6514525413513184 0.27916407585144043
5.7639689445495605 2.657155990600586 0.27711397409439087
0.0 0.0 0.0
5.426109790802002 2.5590529441833496 0.26193442940711975
4.311173915863037 2.056271553039551 0.2085442990064621
4.290462493896484 2.069420576095581 0.20797723531723022
6.551392555236816 3.195246458053589 0.31824707984924316
5.0589494705200195 2.4947350025177 0.24627508223056793
5.061427116394043 2.5234713554382324 0.2469293624162674
5.060181617736816 2.550478219985962 0.2474091798067093
3.9229485988616943 1.9987928867340088 0.19223064184188843
3.9044203758239746 2.010859251022339 0.19175083935260773
0.0 0.0 0.0
4.655049800872803 2.4490809440612793 0.22965608537197113
3.5381510257720947 1.8812230825424194 0.17495736479759216
3.5395896434783936 1.9018447399139404 0.17543718218803406
0.0 0.0 0.0
5.517275810241699 3.0268099308013916 0.274758517742157
5.409647464752197 2.9985461235046387 0.2700476348400116
5.3816938400268555 3.0138227939605713 0.26930609345436096
5.392838954925537 3.0510504245758057 0.2705274522304535
5.37080192565918 3.069594621658325 0.2700912654399872
6.637862205505371 3.832282543182373 0.3346479535102844
3.1258528232574463 1.8229012489318848 0.15798942744731903
3.1230342388153076 1.8395651578903198 0.15825115144252777
3.0960888862609863 1.8419368267059326 0.15729151666164398
6.0039167404174805 3.6074342727661133 0.30581551790237427
6.032532691955566 3.6605467796325684 0.30808374285697937
6.105946063995361 3.741642951965332 0.3126637637615204
4.576516628265381 2.831969738006592 0.23497764766216278
3.836331844329834 2.397151470184326 0.19750860333442688
2.946265459060669 1.858912706375122 0.1521008163690567
2.9423391819000244 1.874434232711792 0.15231890976428986
0.0 0.0 0.0
7.840024948120117 5.091256141662598 0.40814661979675293
5.291195392608643 3.4689812660217285 0.27624157071113586
3.5040102005004883 2.3192012310028076 0.18346315622329712
3.483058452606201 2.3272528648376465 0.18289610743522644
5.032473564147949 3.3943698406219482 0.2650313973426819
0.0 0.0 0.0
4.265765190124512 2.931713104248047 0.22599205374717712
0.0 0.0 0.0
2.543520212173462 1.7809520959854126 0.13556905090808868
2.5283825397491455 1.78684401512146 0.13517649471759796
0.0 0.0 0.0
3.2262041568756104 2.3224825859069824 0.17356154322624207
3.143296957015991 2.2836878299713135 0.1696358025074005
3.07126522064209 2.251894235610962 0.16627711057662964
3.0581977367401123 2.2628965377807617 0.16610263288021088
3.835184335708618 2.8638038635253906 0.2089805006980896
0.0 0.0 0.0
5.070520401000977 3.8556270599365234 0.27811723947525024
5.503848075866699 4.223156929016113 0.3028930425643921
5.441132545471191 4.212880611419678 0.3004503548145294
0.0 0.0 0.0
2.8809640407562256 2.271117925643921 0.16017039120197296
0.0 0.0 0.0
0.0 0.0 0.0
5.849497318267822 4.73672342300415 0.3286284804344177
0.0 0.0 0.0
2.1508030891418457 1.7729456424713135 0.12169809639453888
2.13690185546875 1.7772026062011719 0.12134913355112076
2.114586114883423 1.7743085622787476 0.12052037566900253
6.319709777832031 5.34990930557251 0.3615174889564514
6.303143501281738 5.383272171020508 0.36191004514694214
3.159097194671631 2.7219910621643066 0.18206733465194702
3.1585001945495605 2.7455804347991943 0.18272161483764648
2.4937570095062256 2.1869170665740967 0.14481636881828308
2.47745680809021 2.191819190979004 0.14442379772663116
2.4820315837860107 2.215247869491577 0.14525257050991058
2.4975852966308594 2.2487850189208984 0.14673562347888947
2.498842239379883 2.2697370052337646 0.14738991856575012
3.622516632080078 3.319349765777588 0.2145201563835144
3.609466075897217 3.3364803791046143 0.2146073877811432
0.0 0.0 0.0
2.9071037769317627 2.7346677780151367 0.17425945401191711
2.8770267963409424 2.7301342487335205 0.17316897213459015
5.466037273406982 5.232472896575928 0.33037325739860535
5.365539073944092 5.18132209777832 0.32566237449645996
0.0 0.0 0.0
1.7365565299987793 1.7064701318740845 0.10630045086145401
1.723418116569519 1.7084044218063354 0.10595149546861649
1.7095894813537598 1.7095500230789185 0.10555891692638397
3.1749351024627686 3.2026891708374023 0.19689792394638062
5.054408073425293 5.143283367156982 0.3148447573184967
4.9454731941223145 5.076552391052246 0.3094359338283539
4.949648380279541 5.125391483306885 0.3110934793949127
2.114041805267334 2.2083053588867188 0.13347533345222473
2.0830671787261963 2.1950433254241943 0.13212312757968903
2.0638861656188965 2.1939241886138916 0.13151246309280396
4.7851762771606445 5.131352424621582 0.30633896589279175
2.467836380004883 2.6696274280548096 0.15873095393180847
2.456164598464966 2.6803698539733887 0.15873095393180847
0.0 0.0 0.0
4.585258960723877 5.092324733734131 0.2991853952407837
4.553682327270508 5.101848125457764 0.2985747158527374
4.514166355133057 5.102214813232422 0.29744061827659607
4.4707818031311035 5.097826957702637 0.29604479670524597
3.1710362434387207 3.6477720737457275 0.21103060245513916
3.174654006958008 3.6842782497406006 0.21233917772769928
3.199425458908081 3.745954990386963 0.21508720517158508
4.278494834899902 5.053839206695557 0.28910931944847107
0.0 0.0 0.0
0.0 0.0 0.0
4.176388740539551 5.066239833831787 0.2866666316986084
4.126430511474609 5.0503740310668945 0.2847473621368408
1.7635899782180786 2.177798271179199 0.12235238403081894
1.752194881439209 2.1831350326538086 0.12222152203321457
1.7233726978302002 2.166522264480591 0.12086933106184006
1.6811219453811646 2.132439613342285 0.11855749785900116
1.6361265182495117 2.0940935611724854 0.11602757126092911
1.219618797302246 1.5751194953918457 0.08697705715894699
1.266255259513855 1.6501741409301758 0.09081556648015976
1.2650903463363647 1.6636357307434082 0.09125176072120667
1.260825753211975 1.6731293201446533 0.09146986156702042
0.0 0.0 0.0
3.6785104274749756 4.971092700958252 0.270004004240036
3.649696111679077 4.977427959442139 0.2694805860519409
3.612088203430176 4.971482753753662 0.268302857875824
3.574601411819458 4.965303897857666 0.26712512969970703
3.5389785766601562 4.961334228515625 0.26607826352119446
0.0 0.0 0.0
2.9482951164245605 4.210489749908447 0.22442176938056946
2.5027968883514404 3.6076700687408447 0.19170720875263214
2.4972176551818848 3.633376121520996 0.19249236583709717
2.1681506633758545 3.184269428253174 0.16819636523723602
2.131330728530884 3.1597416400909424 0.166407972574234
2.1214089393615723 3.174825668334961 0.16671331226825714
1.7485599517822266 2.6417131423950195 0.13831709325313568
1.7079843282699585 2.605036735534668 0.1360052525997162
1.682454228401184 2.5906801223754883 0.13487115502357483
1.663027286529541 2.585392951965332 0.13421685993671417
3.1257803440093994 4.906354904174805 0.25399571657180786
1.3263962268829346 2.102151393890381 0.10852503776550293
1.3172112703323364 2.1079187393188477 0.10852503776550293
1.3058984279632568 2.11024808883667 0.10835056751966476
2.5395894050598145 4.144114017486572 0.2122083306312561
2.488830804824829 4.10134744644165 0.2094603031873703
2.20025372505188 3.6617305278778076 0.18651649355888367
0.0 0.0 0.0
1.2088463306427002 2.0521533489227295 0.10398861765861511
1.196860909461975 2.0522301197052 0.10372690111398697
1.1814011335372925 2.0461854934692383 0.10315985232591629
2.774247646331787 4.853780269622803 0.2440941035747528
1.7474640607833862 3.088538408279419 0.1549360752105713
1.7422701120376587 3.110952138900757 0.15567760169506073
2.683352470397949 4.840746879577637 0.24165141582489014
0.8644959330558777 1.5757191181182861 0.07847128063440323
