# .PCD v0.7 - Point Cloud Data file format
VERSION 0.7
FIELDS x y z
SIZE 4 4 4
TYPE F F F
COUNT 1 1 1
WIDTH 877
HEIGHT 1
VIEWPOINT 0 0 0 1 0 0 0
POINTS 877
DATA ascii
-0.11678759008646011 -0.2196444869041443 0.010861228220164776
-0.11582810431718826 -0.22015197575092316 0.010861228220164776
-0.11348247528076172 -0.2179967612028122 0.01073036901652813
-0.11253021657466888 -0.2184898406267166 0.01073036901652813
-0.11157581210136414 -0.21897876262664795 0.01073036901652813
-0.11016961187124252 -0.21857139468193054 0.010686749592423439
-0.10832332819700241 -0.21726185083389282 0.010599511675536633
-0.10737432539463043 -0.21773242950439453 0.010599511675536633
-0.10598531365394592 -0.21730093657970428 0.010555892251431942
-0.10460212826728821 -0.21686147153377533 0.010512272827327251
-0.1036549061536789 -0.21731580793857574 0.010512272827327251
-0.1027057096362114 -0.21776601672172546 0.010512272827327251
-0.1017545536160469 -0.2182120829820633 0.010512272827327251
-0.10121972858905792 -0.21956126391887665 0.010555892251431942
-0.10108935832977295 -0.22181901335716248 0.010643131099641323
-0.10012053698301315 -0.22225798666477203 0.010643131099641323
-0.09793075174093246 -0.2199546992778778 0.010512272827327251
-0.0969700962305069 -0.22037990391254425 0.010512272827327251
-0.09640596061944962 -0.22171710431575775 0.010555892251431942
-0.09504325687885284 -0.22121772170066833 0.010512272827327251
-0.09446748346090317 -0.2225499451160431 0.010555892251431942
-0.09388187527656555 -0.223881334066391 0.010599511675536633
-0.09290412813425064 -0.22428883612155914 0.010599511675536633
-0.09116802364587784 -0.2228427529335022 0.010512272827327251
-0.09056908637285233 -0.22416472434997559 0.010555892251431942
-0.09033054113388062 -0.22641362249851227 0.010643131099641323
-0.08860946446657181 -0.224946528673172 0.010555892251431942
-0.087627112865448 -0.22533102333545685 0.010555892251431942
-0.08592703938484192 -0.22384583950042725 0.010468653403222561
-0.08494951575994492 -0.22421863675117493 0.010468653403222561
-0.08502000570297241 -0.2273944914340973 0.010599511675536633
-0.08437280356884003 -0.22870059311389923 0.010643131099641323
-0.08405750244855881 -0.23094414174556732 0.01073036901652813
-0.08169864118099213 -0.22754760086536407 0.010555892251431942
-0.08003802597522736 -0.22601842880249023 0.010468653403222561
-0.08069797605276108 -0.23108144104480743 0.010686749592423439
-0.0800141915678978 -0.23237596452236176 0.01073036901652813
-0.07835724204778671 -0.2308308333158493 0.010643131099641323
-0.07766631245613098 -0.2321179360151291 0.010686749592423439
-0.07727852463722229 -0.2343522161245346 0.010773989371955395
-0.07594650983810425 -0.2337370067834854 0.01073036901652813
-0.07462134957313538 -0.23311467468738556 0.010686749592423439
-0.07390391826629639 -0.23439085483551025 0.01073036901652813
-0.07317676395177841 -0.2356652021408081 0.010773989371955395
-0.07214779406785965 -0.2359822541475296 0.010773989371955395
-0.06967782229185104 -0.23151151835918427 0.010555892251431942
-0.067532017827034 -0.22798170149326324 0.01038141455501318
-0.06737532466650009 -0.23115161061286926 0.010512272827327251
-0.06746760755777359 -0.23528476059436798 0.010686749592423439
-0.06562680006027222 -0.23269230127334595 0.010555892251431942
-0.06407690048217773 -0.2310509979724884 0.010468653403222561
-0.06359371542930603 -0.23325613141059875 0.010555892251431942
-0.06283392757177353 -0.23449638485908508 0.010599511675536633
-0.0620645135641098 -0.23573444783687592 0.010643131099641323
-0.061285488307476044 -0.2369702160358429 0.010686749592423439
-0.06049685925245285 -0.23820367455482483 0.01073036901652813
-0.05873185023665428 -0.23555727303028107 0.010599511675536633
-0.05841587483882904 -0.2387225329875946 0.01073036901652813
-0.058306608349084854 -0.24286091327667236 0.010904846712946892
-0.05770435556769371 -0.24505791068077087 0.010992085561156273
-0.05596033111214638 -0.242387056350708 0.010861228220164776
-0.05269728600978851 -0.23288477957248688 0.01042503397911787
-0.05059945583343506 -0.22823566198349 0.010206936858594418
-0.04811926558613777 -0.22162017226219177 0.009901601821184158
-0.0454900749027729 -0.2140102982521057 0.009552646428346634
-0.04333514720201492 -0.20833806693553925 0.00929092988371849
-0.043222423642873764 -0.21244113147258759 0.009465407580137253
-0.04326961189508438 -0.21752695739269257 0.009683504700660706
-0.040413759648799896 -0.20790675282478333 0.0092473104596138
-0.3922668993473053 -2.0660884380340576 0.09181880950927734
-0.39053088426589966 -2.1070730686187744 0.09356359392404556
-0.38720008730888367 -2.1411993503570557 0.09500303119421005
-0.38461968302726746 -2.181239366531372 0.09670417755842209
-0.38220471143722534 -2.2242507934570312 0.09853620082139969
-0.37810245156288147 -2.259399175643921 0.10001926124095917
-0.3733794391155243 -2.292581081390381 0.10141507536172867
-0.3679051101207733 -2.3228042125701904 0.10268004238605499
-0.35852646827697754 -2.32932448387146 0.10289814323186874
-0.7662728428840637 -5.1271162033081055 0.22634100914001465
-0.743034303188324 -5.124478340148926 0.2260792851448059
-0.7199724912643433 -5.122725486755371 0.22586120665073395
-0.6972095370292664 -5.122848033905029 0.22573032975196838
-0.674068033695221 -5.119898319244385 0.22546862065792084
-0.6509655117988586 -5.116844654083252 0.2252068966627121
-0.6281460523605347 -5.115670204162598 0.22503243386745453
-0.6051144003868103 -5.112409591674805 0.2247707098722458
-0.5823493003845215 -5.111030101776123 0.22459623217582703
-0.5591727495193481 -5.1055779457092285 0.2242472767829895
-0.5362637639045715 -5.102007865905762 0.22398556768894196
-0.5135967135429382 -5.100322723388672 0.223811075091362
-0.4910504221916199 -5.099532127380371 0.22368022799491882
-0.4679722487926483 -5.092671871185303 0.2232876569032669
-0.44531163573265076 -5.089689254760742 0.22306956350803375
-0.4229341745376587 -5.089592456817627 0.22298233211040497
-0.4001740515232086 -5.084417343139648 0.22267697751522064
-0.3776153028011322 -5.081133842468262 0.2224588841199875
-0.3550927937030792 -5.077749729156494 0.22224079072475433
-0.33254167437553406 -5.073269367218018 0.2219790667295456
-0.310219407081604 -5.071681022644043 0.22184821963310242
-0.2879173457622528 -5.069993495941162 0.22171735763549805
-0.26542672514915466 -5.064218044281006 0.22141201794147491
-0.24318379163742065 -5.0623345375061035 0.22128117084503174
-0.2210058867931366 -5.0613508224487305 0.22119390964508057
-0.19860586524009705 -5.054280757904053 0.22084496915340424
-0.17620199918746948 -5.045114994049072 0.22040878236293793
-0.15394292771816254 -5.03784704208374 0.2200598120689392
-0.1318291425704956 -5.033477306365967 0.21984173357486725
-0.10988718271255493 -5.035003662109375 0.21988534927368164
-0.08786465972661972 -5.032438278198242 0.21975447237491608
-0.0658012107014656 -5.024781703948975 0.21940553188323975
-0.04384986311197281 -5.022024631500244 0.21927466988563538
-0.021936925128102303 -5.022168159484863 0.21927466988563538
-2.3606131435371935e-05 -5.030208110809326 0.2196236252784729
0.02192026935517788 -5.02916145324707 0.2195800095796585
0.043785300105810165 -5.020026683807373 0.2191874235868454
0.013490692712366581 -1.030929684638977 0.045015208423137665
0.018058527261018753 -1.0348564386367798 0.04518968611955643
0.022551940754055977 -1.033769130706787 0.045146070420742035
0.027088500559329987 -1.034659504890442 0.04518968611955643
0.03151124343276024 -1.0315356254577637 0.045058827847242355
0.03590724244713783 -1.028393030166626 0.04492797330021858
0.04086468368768692 -1.040205955505371 0.04545140266418457
0.05259253829717636 -1.2047038078308105 0.052648600190877914
0.06848841160535812 -1.42599618434906 0.06233210489153862
0.07612138241529465 -1.4526212215423584 0.06350982934236526
0.08234558999538422 -1.4502803087234497 0.06342259049415588
0.0887947604060173 -1.4519015550613403 0.06350982934236526
0.09512897580862045 -1.4515002965927124 0.06350982934236526
0.3484947681427002 -4.984071731567383 0.21814057230949402
0.3703123927116394 -4.983500003814697 0.2181841880083084
0.39197492599487305 -4.980840682983398 0.21814057230949402
0.4137040376663208 -4.979083061218262 0.21814057230949402
0.4355123043060303 -4.9782257080078125 0.2181841880083084
0.45713818073272705 -4.975283622741699 0.21814057230949402
0.478746622800827 -4.9722466468811035 0.21809694170951843
0.500237226486206 -4.968122482299805 0.21800969541072845
0.5217009782791138 -4.963905334472656 0.21792246401309967
0.5433549284934998 -4.961581707000732 0.21792246401309967
0.5652247071266174 -4.961148738861084 0.21800969541072845
0.5868662595748901 -4.958635330200195 0.21800969541072845
0.6086183190345764 -4.957019329071045 0.21805331110954285
0.3131665885448456 -2.461796998977661 0.10835056751966476
0.32468748092651367 -2.4663498401641846 0.10861227661371231
0.3355805277824402 -2.465899705886841 0.1086558997631073
0.3438341021537781 -2.446604013442993 0.10787074267864227
0.29229187965393066 -2.0159802436828613 0.08893993496894836
0.2750966548919678 -1.8407844305038452 0.08126291632652283
0.28115028142929077 -1.8267302513122559 0.08069587498903275
0.2891181409358978 -1.825486183166504 0.08069587498903275
0.29724109172821045 -1.8251932859420776 0.08073949068784714
0.3043776750564575 -1.818952202796936 0.08052138984203339
0.8384698033332825 -4.879772186279297 0.21617770195007324
0.8661722540855408 -4.912469863891602 0.2177916020154953
0.8884873390197754 -4.913559436798096 0.21800969541072845
0.8988127708435059 -4.849714756011963 0.21534892916679382
0.9195922613143921 -4.843783855438232 0.21526169776916504
0.95234614610672 -4.899547576904297 0.21792246401309967
0.9744947552680969 -4.899264812469482 0.21809694170951843
0.9974558353424072 -4.902798175811768 0.21844591200351715
1.0196523666381836 -4.9023118019104 0.21862037479877472
1.0414483547210693 -4.899770736694336 0.2187076210975647
1.063029408454895 -4.896156311035156 0.2187512367963791
1.0843826532363892 -4.8914713859558105 0.2187512367963791
1.1063766479492188 -4.889616012573242 0.21888208389282227
1.128599762916565 -4.888636112213135 0.21905657649040222
1.1499196290969849 -4.883665084838867 0.21905657649040222
1.1721502542495728 -4.882486820220947 0.2192310392856598
1.1939177513122559 -4.87926721572876 0.21931828558444977
1.2159210443496704 -4.876919269561768 0.21944914758205414
1.2381725311279297 -4.87544059753418 0.2196236252784729
1.2594337463378906 -4.869991779327393 0.2196236252784729
1.2806708812713623 -4.864449977874756 0.2196236252784729
1.3031765222549438 -4.863641262054443 0.21984173357486725
1.3256993293762207 -4.862727642059326 0.2200598120689392
1.3482390642166138 -4.861710548400879 0.22027790546417236
1.3699816465377808 -4.8577046394348145 0.22036515176296234
1.0879830121994019 -3.794337272644043 0.17234019935131073
1.101732850074768 -3.7799627780914307 0.17190401256084442
1.116796612739563 -3.770329713821411 0.17168590426445007
1.1300699710845947 -3.7548975944519043 0.17120610177516937
1.1178183555603027 -3.6563024520874023 0.1669314056634903
1.075695514678955 -3.464384078979492 0.15838199853897095
1.0781840085983276 -3.4196395874023438 0.15654999017715454
1.098881483078003 -3.432981014251709 0.15737876296043396
1.139473557472229 -3.507016181945801 0.16099916398525238
1.2092024087905884 -3.6671016216278076 0.16858893632888794
1.2410413026809692 -3.7091617584228516 0.17076991498470306
1.2597825527191162 -3.7112796306610107 0.1711188554763794
1.2782407999038696 -3.71235990524292 0.17142421007156372
1.300355315208435 -3.723724842071533 0.17220935225486755
1.3202589750289917 -3.728374719619751 0.17268915474414825
1.3361767530441284 -3.7216382026672363 0.17264553904533386
1.3547943830490112 -3.722344398498535 0.172950878739357
1.3741352558135986 -3.7248332500457764 0.1733434498310089
1.3921239376068115 -3.7234809398651123 0.17356154322624207
1.4136664867401123 -3.7313849925994873 0.17421583831310272
1.4302921295166016 -3.726113796234131 0.17425945401191711
1.4096038341522217 -3.6248629093170166 0.16981028020381927
1.3851306438446045 -3.5164291858673096 0.1650121510028839
1.386763334274292 -3.4760189056396484 0.16339823603630066
1.3944320678710938 -3.451408624649048 0.16252583265304565
1.407586932182312 -3.4406683444976807 0.1623077541589737
1.4252623319625854 -3.4409549236297607 0.16261307895183563
1.4394898414611816 -3.4328606128692627 0.16252583265304565
1.4497705698013306 -3.4155116081237793 0.16200241446495056
1.4662370681762695 -3.412824869155884 0.16217689216136932
1.4850977659225464 -3.4155566692352295 0.16261307895183563
1.499584436416626 -3.408129930496216 0.16256946325302124
2.11948561668396 -4.760532855987549 0.2275187224149704
2.141878366470337 -4.754883289337158 0.22769321501255035
2.1655049324035645 -4.751856327056885 0.2279985398054123
2.189145803451538 -4.748713493347168 0.22830387949943542
2.211111545562744 -4.741832733154297 0.228434756398201
2.2356157302856445 -4.740272045135498 0.2288273125886917
2.2605786323547363 -4.739489555358887 0.22926349937915802
2.2842750549316406 -4.735879898071289 0.22956885397434235
2.308858871459961 -4.733949184417725 0.22996142506599426
2.3334691524505615 -4.731894016265869 0.23035398125648499
2.358105421066284 -4.729714393615723 0.2307465821504593
2.381417989730835 -4.724733352661133 0.23100829124450684
2.4001965522766113 -4.7107367515563965 0.23083381354808807
0.0 -0.0 0.0
2.122453212738037 -4.077268600463867 0.200692817568779
2.133711099624634 -4.055590629577637 0.20008213818073273
2.15889048576355 -4.0603556632995605 0.20078004896640778
2.1860437393188477 -4.068498134613037 0.2016524374485016
2.2133090496063232 -4.076481342315674 0.2025248259305954
2.2387633323669434 -4.080799579620361 0.20322273671627045
2.265265703201294 -4.0867204666137695 0.20400787889957428
2.2923505306243896 -4.093358993530273 0.2048366516828537
2.3215041160583496 -4.1033172607421875 0.20583990216255188
2.3488049507141113 -4.109629154205322 0.2066686749458313
2.3757052421569824 -4.114914894104004 0.20745380222797394
2.4057161808013916 -4.125222206115723 0.2085006833076477
2.4328196048736572 -4.130180835723877 0.20928582549095154
2.4605228900909424 -4.135839939117432 0.21011459827423096
2.4893505573272705 -4.14304780960083 0.21103060245513916
2.5182878971099854 -4.150082588195801 0.21194660663604736
2.5473339557647705 -4.1569437980651855 0.21286261081695557
2.5780646800994873 -4.1661787033081055 0.21390949189662933
2.6083946228027344 -4.174376964569092 0.21491272747516632
2.6372456550598145 -4.179854393005371 0.21578510105609894
2.6688780784606934 -4.189372539520264 0.2168755978345871
2.700643301010132 -4.198693752288818 0.21796607971191406
2.731996536254883 -4.206979274749756 0.21901296079158783
2.7607343196868896 -4.210893154144287 0.21984173357486725
2.7934179306030273 -4.220467567443848 0.2209758311510086
2.8245720863342285 -4.227344512939453 0.2219790667295456
2.856956720352173 -4.2356858253479 0.22306956350803375
2.891716718673706 -4.247128486633301 0.2243345081806183
2.9238014221191406 -4.254230976104736 0.22538138926029205
2.969099998474121 -4.2800140380859375 0.2274314910173416
3.015824794769287 -4.307118892669678 0.22956885397434235
3.0242106914520264 -4.279233455657959 0.22878369688987732
3.038792371749878 -4.260303497314453 0.22847837209701538
3.05910325050354 -4.249436378479004 0.22860921919345856
3.081139087677002 -4.2408976554870605 0.2288709282875061
3.102567672729492 -4.231441974639893 0.22908903658390045
3.1215953826904297 -4.218667030334473 0.22913265228271484
3.14176607131958 -4.2074079513549805 0.22926349937915802
3.1649043560028076 -4.200042724609375 0.22961246967315674
3.186828374862671 -4.190965175628662 0.22987419366836548
3.208125114440918 -4.18098258972168 0.23009227216243744
3.2312307357788086 -4.173264980316162 0.23044124245643616
3.252484083175659 -4.163062572479248 0.23065932095050812
3.2743287086486816 -4.153538703918457 0.23092104494571686
3.2949085235595703 -4.142339706420898 0.23109552264213562
3.316077947616577 -4.131819725036621 0.23131363093852997
3.3378467559814453 -4.121969699859619 0.23157532513141632
3.3608572483062744 -4.113555908203125 0.23192429542541504
3.3813157081604004 -4.101935863494873 0.2320987582206726
3.4023754596710205 -4.090983867645264 0.23231686651706696
3.426614999771118 -4.083752632141113 0.23275306820869446
3.4495649337768555 -4.074862480163574 0.23310202360153198
3.471853733062744 -4.065089702606201 0.23340734839439392
3.4830362796783447 -4.042334079742432 0.23297114670276642
0.0 -0.0 0.0
3.120317220687866 -3.55810284614563 0.20662502944469452
3.042473077774048 -3.438951015472412 0.20047470927238464
0.0 -0.0 0.0
3.548330068588257 -3.940889835357666 0.23153170943260193
3.623931407928467 -3.989708662033081 0.2353266179561615
0.0 -0.0 0.0
0.0 -0.0 0.0
0.0 -0.0 0.0
0.0 -0.0 0.0
3.0065934658050537 -3.1683454513549805 0.19070397317409515
3.021770715713501 -3.156639814376831 0.19079120457172394
0.0 -0.0 0.0
0.0 -0.0 0.0
0.0 -0.0 0.0
0.0 -0.0 0.0
0.0 -0.0 0.0
0.0 -0.0 0.0
0.0 -0.0 0.0
0.0 -0.0 0.0
0.0 -0.0 0.0
0.0 -0.0 0.0
0.0 -0.0 0.0
0.0 -0.0 0.0
0.0 -0.0 0.0
0.0 -0.0 0.0
0.0 -0.0 0.0
3.4475831985473633 -3.1316232681274414 0.20335358381271362
3.4716086387634277 -3.1259098052978516 0.2039642632007599
0.0 -0.0 0.0
1.906506896018982 -1.6867671012878418 0.11114220321178436
1.9115952253341675 -1.6764562129974365 0.11101134121417999
1.9068281650543213 -1.6576123237609863 0.11031343042850494
1.909501552581787 -1.6453635692596436 0.1100517138838768
1.921980381011963 -1.641558289527893 0.11035706102848053
1.935987114906311 -1.6389659643173218 0.11074962466955185
1.9477118253707886 -1.6343562602996826 0.11101134121417999
4.083240509033203 -3.396062135696411 0.23188067972660065
4.096477508544922 -3.3769421577453613 0.23179343342781067
4.104984283447266 -3.3539791107177734 0.23144447803497314
4.113368511199951 -3.3310062885284424 0.23109552264213562
4.12552547454834 -3.311150550842285 0.23096466064453125
4.1360249519348145 -3.290008783340454 0.2307465821504593
4.144063949584961 -3.2669825553894043 0.23039759695529938
4.151981353759766 -3.2439491748809814 0.23004865646362305
1.8468587398529053 -1.4300199747085571 0.10198213160037994
1.8538734912872314 -1.4225562810897827 0.10202575474977493
1.8513151407241821 -1.407801628112793 0.10154593735933304
1.8494614362716675 -1.39369797706604 0.10110974311828613
1.855525016784668 -1.3856149911880493 0.10110974311828613
1.8687809705734253 -1.3828539848327637 0.10150232166051865
1.8917158842086792 -1.3870925903320312 0.10241832584142685
1.9704921245574951 -1.4316765069961548 0.106344074010849
2.17374324798584 -1.5649044513702393 0.11694358289241791
2.2147107124328613 -1.5797715187072754 0.11877559125423431
2.229741334915161 -1.5758590698242188 0.11921178549528122
2.2374143600463867 -1.5666882991790771 0.1192554160952568
5.8584723472595215 -4.0642547607421875 0.31131160259246826
5.897556304931641 -4.053366661071777 0.31244567036628723
5.93913459777832 -4.043901443481445 0.31371065974235535
5.983226299285889 -4.035826206207275 0.31510648131370544
6.024868488311768 -4.025777816772461 0.3163714110851288
6.0707011222839355 -4.018199443817139 0.31785449385643005
6.115746974945068 -4.009749412536621 0.31929391622543335
6.160833835601807 -4.000982761383057 0.32073336839675903
2.141753673553467 -1.3776535987854004 0.11118581891059875
2.143531560897827 -1.3656115531921387 0.1109677255153656
2.1401758193969727 -1.3503814935684204 0.1104879155755043
2.1401166915893555 -1.3373243808746338 0.11018257588148117
2.1442325115203857 -1.3269222974777222 0.11009533703327179
2.156816244125366 -1.3217297792434692 0.11044429242610931
2.1762282848358154 -1.32059907913208 0.11114220321178436
2.1802570819854736 -1.3100618124008179 0.11105495691299438
6.374121189117432 -3.792294502258301 0.32383033633232117
9.114190101623535 -5.368797779083252 0.4618420898914337
6.994679927825928 -4.079276084899902 0.35353514552116394
7.009816646575928 -4.0472187995910645 0.35340428352355957
7.03087854385376 -4.018577575683594 0.35357874631881714
10.740337371826172 -6.076741695404053 0.5387866497039795
10.814690589904785 -6.05666971206665 0.541185736656189
6.770937919616699 -3.7532870769500732 0.3380066454410553
5.527723789215088 -3.0326905250549316 0.27528196573257446
5.553195476531982 -3.01521635055542 0.2758926451206207
5.5891804695129395 -3.0032522678375244 0.2770267426967621
5.626930236816406 -2.991969347000122 0.2782480716705322
5.66203498840332 -2.979018449783325 0.2793385684490204
5.702450752258301 -2.968585729598999 0.2806907594203949
5.741106033325195 -2.956941604614258 0.2819557189941406
5.78065824508667 -2.9454703330993652 0.28326430916786194
5.822895050048828 -2.935058832168579 0.2847037613391876
5.862468242645264 -2.922997236251831 0.28601232171058655
5.902943134307861 -2.91108775138855 0.28736454248428345
5.94701623916626 -2.900632381439209 0.2888911962509155
5.989311218261719 -2.88897967338562 0.2903306484222412
6.0316162109375 -2.8770124912261963 0.2917700707912445
6.075737953186035 -2.8655834197998047 0.29329678416252136
6.120779037475586 -2.854245662689209 0.29486706852912903
6.164021968841553 -2.8417327404022217 0.2963501214981079
6.209090232849121 -2.829725503921509 0.29792043566703796
6.254169940948486 -2.817378282546997 0.29949072003364563
6.300172805786133 -2.805098056793213 0.3011046350002289
6.348015308380127 -2.793274402618408 0.3028058111667633
6.394041538238525 -2.7802894115448 0.30441972613334656
6.435484886169434 -2.764983654022217 0.30581551790237427
6.464041709899902 -2.743903875350952 0.3066006898880005
6.485166072845459 -2.719536781311035 0.3070368766784668
6.502508163452148 -2.6935081481933594 0.30729860067367554
6.517897605895996 -2.666623115539551 0.3074730634689331
6.537807464599609 -2.641526460647583 0.3078656494617462
6.556694507598877 -2.615936517715454 0.30821460485458374
6.5745530128479 -2.5898656845092773 0.3085199296474457
6.592308521270752 -2.5636889934539795 0.30882528424263
6.611825942993164 -2.5381224155426025 0.3092178404331207
6.631246089935303 -2.512434720993042 0.30961042642593384
6.646823883056641 -2.4852259159088135 0.309828519821167
6.666040420532227 -2.4593122005462646 0.3102211058139801
6.686095237731934 -2.433619737625122 0.3106572926044464
6.701352119445801 -2.406111240386963 0.31087538599967957
6.72120475769043 -2.380183219909668 0.31131160259246826
6.740014553070068 -2.3537983894348145 0.311704158782959
6.757777690887451 -2.3269691467285156 0.3120531141757965
6.778273105621338 -2.3009934425354004 0.3125329315662384
6.797722339630127 -2.2745656967163086 0.3129691183567047
6.815173149108887 -2.2473866939544678 0.31331807374954224
6.832515239715576 -2.2200982570648193 0.31366702914237976
6.850700378417969 -2.1930060386657715 0.3140595853328705
6.868779182434082 -2.165797233581543 0.3144521713256836
6.8886590003967285 -2.1390650272369385 0.3149319887161255
6.9074811935424805 -2.111908197402954 0.3153681755065918
6.924283504486084 -2.084052085876465 0.3157171308994293
6.94288969039917 -2.056656837463379 0.31615331768989563
6.956593036651611 -2.0277411937713623 0.3163714110851288
6.962493896484375 -1.996541976928711 0.3162405788898468
8.874018669128418 -2.5028326511383057 0.40256333351135254
8.955133438110352 -2.483579397201538 0.40574753284454346
9.11239242553711 -2.4844260215759277 0.4123777151107788
9.261140823364258 -2.481619119644165 0.4186152517795563
3.704115390777588 -0.9752535820007324 0.16723673045635223
3.722843885421753 -0.9628344178199768 0.1678910255432129
3.720231294631958 -0.9448598027229309 0.16758570075035095
3.7311041355133057 -0.9303101897239685 0.1678910255432129
3.7448320388793945 -0.9163960218429565 0.1683272272348404
3.7332518100738525 -0.8963156938552856 0.16762931644916534
9.18285083770752 -2.1623754501342773 0.4118978977203369
9.143526077270508 -2.1110496520996094 0.409716933965683
9.129263877868652 -2.0658416748046875 0.4086700677871704
9.080644607543945 -2.0132296085357666 0.40609651803970337
8.978043556213379 -1.9494222402572632 0.40112388134002686
8.952261924743652 -1.9029593467712402 0.3995972275733948
8.78050708770752 -1.8264434337615967 0.3915712535381317
8.710074424743652 -1.7721790075302124 0.38808169960975647
8.649134635925293 -1.7205133438110352 0.3850283622741699
8.60066032409668 -1.671891689300537 0.38254204392433167
8.626522064208984 -1.6378891468048096 0.3833708167076111
8.681719779968262 -1.6091548204421997 0.38550814986228943
8.739779472351074 -1.580503225326538 0.38777637481689453
8.733802795410156 -1.5400984287261963 0.38720932602882385
8.707947731018066 -1.4963918924331665 0.38576990365982056
4.214321613311768 -0.7052804827690125 0.18656013906002045
4.210456371307373 -0.685761034488678 0.18625478446483612
4.204527854919434 -0.665976345539093 0.1858622133731842
4.205419063568115 -0.6473203897476196 0.18577498197555542
4.221048355102539 -0.6308844685554504 0.1863420307636261
8.628454208374023 -1.2511574029922485 0.3806664049625397
8.623937606811523 -1.2121062278747559 0.380230188369751
8.616275787353516 -1.172714352607727 0.3796631693840027
8.599519729614258 -1.132238507270813 0.3787035346031189
8.574646949768066 -1.0909227132797241 0.3773949444293976
8.584283828735352 -1.0541073083877563 0.3776130676269531
8.61658000946045 -1.0199296474456787 0.37883439660072327
8.637823104858398 -0.9842459559440613 0.3795759379863739
8.79894733428955 -0.9637333750724792 0.3864677846431732
9.083255767822266 -0.9547834396362305 0.39876845479011536
9.110198020935059 -0.9174436926841736 0.39977169036865234
9.108147621154785 -0.8771098256111145 0.399509996175766
9.094975471496582 -0.8358055949211121 0.39876845479011536
9.046782493591309 -0.7915851473808289 0.39650022983551025
8.889857292175293 -0.7387827038764954 0.38947755098342896
8.71870231628418 -0.6862674355506897 0.3818441331386566
8.605045318603516 -0.6395547986030579 0.37674063444137573
3.3007853031158447 -0.23084770143032074 0.14446742832660675
3.296776533126831 -0.21611639857292175 0.1442493200302124
3.2927021980285645 -0.2014244645833969 0.14403121173381805
3.297539472579956 -0.18728207051753998 0.144205704331398
3.304311513900757 -0.1732058823108673 0.14446742832660675
3.30104398727417 -0.15859471261501312 0.1442929357290268
5.445617198944092 -0.2378171682357788 0.23798738420009613
5.611318588256836 -0.22052738070487976 0.24518458545207977
5.608233451843262 -0.19590184092521667 0.245010107755661
8.592798233032227 -0.262622594833374 0.375344842672348
8.733680725097656 -0.2287898063659668 0.3814515769481659
8.809507369995117 -0.1923152357339859 0.3847230076789856
8.987067222595215 -0.15696275234222412 0.3924436569213867
9.009642601013184 -0.11803583055734634 0.3934032618999481
9.005078315734863 -0.07867921143770218 0.39318519830703735
9.002338409423828 -0.03937341645359993 0.393054336309433
8.997428894042969 -9.300416422775015e-05 0.39283621311187744
8.985355377197266 0.039113376289606094 0.39231279492378235
8.964119911193848 0.07813601940870285 0.39139679074287415
3.7820732593536377 0.049470946192741394 0.16514301300048828
3.7798235416412354 0.06593798100948334 0.1650557667016983
3.7695116996765137 0.08221205323934555 0.164619579911232
3.7731118202209473 0.0987633764743805 0.16479404270648956
3.7886223793029785 0.1157136783003807 0.1654919534921646
5.417535781860352 0.18912844359874725 0.23667879402637482
5.55042839050293 0.21801945567131042 0.24252380430698395
0.0 0.0 0.0
0.0 0.0 0.0
0.0 0.0 0.0
0.0 0.0 0.0
0.0 0.0 0.0
0.0 0.0 0.0
0.0 0.0 0.0
8.816274642944336 0.6550707817077637 0.3859879672527313
8.88703441619873 0.6993323564529419 0.3892157971858978
8.866972923278809 0.7366963028907776 0.3884742558002472
8.8656644821167 0.7755527496337891 0.388561487197876
8.869159698486328 0.8148688077926636 0.3888668417930603
6.75728702545166 0.6505821347236633 0.2963937520980835
6.753389358520508 0.6799599528312683 0.2963501214981079
6.752345561981201 0.709629476070404 0.2964373826980591
6.746205806732178 0.7387589812278748 0.2963064908981323
6.740932941436768 0.7679615616798401 0.29621925950050354
6.736525535583496 0.7972496151924133 0.29617565870285034
6.7270331382751465 0.8259050846099854 0.2959139347076416
6.721383571624756 0.8549972772598267 0.2958267033100128
6.713626861572266 0.8837950229644775 0.29565221071243286
6.708716869354248 0.912945568561554 0.29560860991477966
6.70466947555542 0.9422091245651245 0.29560860991477966
6.697527885437012 0.9710246920585632 0.2954777479171753
6.692239284515381 1.0000911951065063 0.2954341173171997
6.686824798583984 1.0291301012039185 0.2953904867172241
6.682270526885986 1.058297038078308 0.2953904867172241
6.675617218017578 1.0871226787567139 0.29530325531959534
6.671795845031738 1.1164050102233887 0.2953468859195709
6.663906574249268 1.1449979543685913 0.29521602392196655
6.655896186828613 1.1735433340072632 0.2950851619243622
6.6526780128479 1.2029293775558472 0.29517239332199097
6.646383762359619 1.2317637205123901 0.29512879252433777
6.638983249664307 1.2603795528411865 0.295041561126709
6.633420467376709 1.2893354892730713 0.295041561126709
6.6277313232421875 1.3182669878005981 0.295041561126709
6.622895240783691 1.3473724126815796 0.2950851619243622
6.616953372955322 1.3762574195861816 0.2950851619243622
6.610885143280029 1.405116081237793 0.2950851619243622
6.6066436767578125 1.434372067451477 0.29517239332199097
6.599347114562988 1.4629690647125244 0.29512879252433777
6.590951919555664 1.4913091659545898 0.295041561126709
6.5843825340271 1.5200533866882324 0.295041561126709
6.572824954986572 1.5476237535476685 0.29482343792915344
6.5621232986450195 1.5753554105758667 0.2946489751338959
6.546453475952148 1.601836085319519 0.29425638914108276
6.519045352935791 1.6253098249435425 0.29334038496017456
6.486715316772461 1.6473453044891357 0.2922062873840332
6.45915412902832 1.6703803539276123 0.291290283203125
6.43344783782959 1.6937150955200195 0.2904615104198456
6.405731201171875 1.71634042263031 0.2895455062389374
6.3798675537109375 1.7392815351486206 0.28871673345565796
6.352000713348389 1.76149582862854 0.28780072927474976
6.325984954833984 1.7840425968170166 0.28697195649147034
6.298933506011963 1.8061206340789795 0.2860995829105377
6.270850658416748 1.8277169466018677 0.28518354892730713
6.245573997497559 1.8499541282653809 0.2843984365463257
6.221179008483887 1.8722933530807495 0.28365689516067505
6.190976619720459 1.892702579498291 0.28265365958213806
6.168347358703613 1.91525399684906 0.2819993495941162
6.1418280601501465 1.9364423751831055 0.2811705768108368
6.1152424812316895 1.9574360847473145 0.28034183382987976
6.088590621948242 1.9782346487045288 0.27951306104660034
6.06566858291626 2.000089168548584 0.2788587510585785
6.039830207824707 2.0208306312561035 0.27807360887527466
6.0139265060424805 2.0413849353790283 0.2772884666919708
5.989847660064697 2.0624020099639893 0.2765905261039734
5.963814735412598 2.082589626312256 0.27580541372299194
5.939602851867676 2.1032559871673584 0.2751074731349945
5.913444519042969 2.1230759620666504 0.27432236075401306
5.857184410095215 2.1317737102508545 0.27214136719703674
0.0 0.0 0.0
5.042941570281982 1.885420560836792 0.23506489396095276
4.975809097290039 1.8851078748703003 0.23231686651706696
7.465295314788818 2.865571975708008 0.3491295874118805
7.385679721832275 2.8720479011535645 0.3459889888763428
7.141623497009277 2.813077211380005 0.3351277709007263
7.039271831512451 2.808302402496338 0.33089667558670044
6.925057888031006 2.797823905944824 0.32609856128692627
8.521697998046875 3.4862186908721924 0.40199628472328186
6.517332077026367 2.699490547180176 0.3079965114593506
6.447447299957275 2.7035627365112305 0.3052484691143036
6.429152011871338 2.7289369106292725 0.30494314432144165
6.415348052978516 2.7561748027801514 0.30485591292381287
6.1659674644470215 2.6809654235839844 0.2935585081577301
6.030760765075684 2.6535258293151855 0.2876698672771454
5.9917449951171875 2.6676247119903564 0.28636130690574646
7.195186614990234 3.2411084175109863 0.3445495367050171
5.8109636306762695 2.6481382846832275 0.2788151204586029
5.777578353881836 2.6634299755096436 0.2777682840824127
0.0 0.0 0.0
5.440567493438721 2.5658717155456543 0.2626323401927948
4.307567119598389 2.054551124572754 0.20836983621120453
4.295861721038818 2.0720248222351074 0.20823895931243896
6.556779861450195 3.1978743076324463 0.3185087740421295
5.065221786499023 2.4978280067443848 0.24658040702342987
5.060533046722412 2.5230257511138916 0.246885746717453
5.053044319152832 2.5468809604644775 0.24706020951271057
3.9193882942199707 1.9969788789749146 0.19205617904663086
3.898203134536743 2.007657289505005 0.1914454996585846
0.0 0.0 0.0
4.669196128845215 2.4565234184265137 0.23035398125648499
3.5469722747802734 1.885913372039795 0.17539356648921967
3.53606915473938 1.8999532461166382 0.1752627044916153
5.566427707672119 3.022251844406128 0.2765469253063202
5.512020587921143 3.0239267349243164 0.27449682354927063
5.406152248382568 2.9966087341308594 0.26987317204475403
5.356415748596191 2.999666690826416 0.2680411636829376
5.372840404510498 3.039735794067383 0.2695242166519165
5.37687349319458 3.0730648040771484 0.2703965902328491
4.250758171081543 2.4541194438934326 0.21430204808712006
4.233105659484863 2.4686169624328613 0.21395310759544373
3.129920721054077 1.8436214923858643 0.1586000919342041
3.1055333614349365 1.8475555181503296 0.15777133405208588
0.0 0.0 0.0
6.023138046264648 3.654845952987671 0.3076039254665375
6.095724105834961 3.7353789806365967 0.3121403455734253
4.595207214355469 2.8435354232788086 0.23593728244304657
3.8320956230163574 2.3945043087005615 0.19729049503803253
2.9623191356658936 1.8690415620803833 0.15292958915233612
2.937283754348755 1.8712135553359985 0.15205718576908112
0.0 0.0 0.0
7.868513107299805 5.109755992889404 0.4096297025680542
5.29537296295166 3.4717202186584473 0.2764596939086914
3.50567626953125 2.3203039169311523 0.1835503876209259
3.4913651943206787 2.3328030109405518 0.18333227932453156
5.0407562255859375 3.399956464767456 0.2654676139354706
0.0 0.0 0.0
4.261648178100586 2.9288837909698486 0.22577394545078278
0.0 0.0 0.0
2.5451571941375732 1.7820981740951538 0.13565629720687866
2.53490948677063 1.791456699371338 0.1355254352092743
0.0 0.0 0.0
3.2197177410125732 2.3178131580352783 0.17321258783340454
3.1416804790496826 2.282513380050659 0.16954855620861053
3.0777106285095215 2.256620407104492 0.16662606596946716
3.063016414642334 2.2664623260498047 0.16636434197425842
3.84479022026062 2.8709769248962402 0.2095039337873459
0.0 0.0 0.0
5.055410385131836 3.844137191772461 0.2772884666919708
5.4903740882873535 4.212818145751953 0.30215150117874146
5.419013500213623 4.195754528045654 0.2992289960384369
0.0 0.0 0.0
2.8762564659118652 2.267406940460205 0.15990868210792542
0.0 0.0 0.0
0.0 0.0 0.0
5.843286037445068 4.731693744659424 0.3282795250415802
0.0 0.0 0.0
2.160824775695801 1.7812066078186035 0.12226515263319016
2.1461193561553955 1.7848684787750244 0.12187257409095764
2.128361701965332 1.78586745262146 0.12130551785230637
6.326572418212891 5.355718612670898 0.36191004514694214
6.306941986083984 5.386516094207764 0.3621281385421753
3.1606109142303467 2.723295211791992 0.1821545660495758
3.151714324951172 2.7396819591522217 0.18232904374599457
2.483992099761963 2.1783535480499268 0.1442493200302124
2.4819464683532715 2.195791244506836 0.1446855068206787
2.4805407524108887 2.2139172554016113 0.1451653242111206
2.490903377532959 2.2427687644958496 0.14634305238723755
2.501060724258423 2.271752119064331 0.1475207805633545
3.6180970668792725 3.3152999877929688 0.21425843238830566
3.619736909866333 3.3459744453430176 0.21521805226802826
0.0 0.0 0.0
2.899099349975586 2.727138042449951 0.1737796515226364
2.878476142883301 2.7315094470977783 0.17325620353221893
5.470367431640625 5.2366180419921875 0.3306349813938141
0.0 0.0 0.0
0.0 0.0 0.0
1.7280057668685913 1.6980674266815186 0.10577701777219772
1.7227087020874023 1.7077010869979858 0.1059078797698021
1.6996994018554688 1.699660062789917 0.1049482524394989
3.170715093612671 3.198432207107544 0.19663621485233307
5.063510894775391 5.1525468826293945 0.3154118061065674
4.954535961151123 5.085855484008789 0.31000301241874695
4.958670139312744 5.1347336769104 0.3116605281829834
2.1168053150177 2.2111921310424805 0.1336498111486435
2.0796287059783936 2.191420078277588 0.13190503418445587
2.0652554035186768 2.1953797340393066 0.13159969449043274
4.775637149810791 5.121123313903809 0.3057282865047455
2.4712274074554443 2.673295497894287 0.15894906222820282
2.4635889530181885 2.688472032546997 0.15921077132225037
0.0 0.0 0.0
4.573225975036621 5.078961372375488 0.29840025305747986
4.5530171394348145 5.101102828979492 0.29853108525276184
4.513504505157471 5.101466655731201 0.2973969876766205
4.4707818031311035 5.097826957702637 0.29604479670524597
3.1697254180908203 3.64626407623291 0.21094337105751038
3.1759586334228516 3.6857922077178955 0.21242642402648926
3.1981279850006104 3.7444357872009277 0.2149999737739563
4.280431747436523 5.056126594543457 0.28924018144607544
0.0 0.0 0.0
0.0 0.0 0.0
0.0 0.0 0.0
4.130223274230957 5.055016040802002 0.28500908613204956
1.764218807220459 2.178574800491333 0.12239600718021393
1.7603243589401245 2.1932640075683594 0.12278857827186584
1.7358113527297974 2.182159423828125 0.12174171209335327
1.684214472770691 2.136362314224243 0.11877559125423431
1.6410472393035889 2.1003916263580322 0.11637653410434723
0.0 0.0 0.0
1.2601734399795532 1.6422481536865234 0.09037937223911285
1.2608572244644165 1.658069133758545 0.09094642102718353
1.2475981712341309 1.655576229095459 0.09051022678613663
0.0 0.0 0.0
3.6743505001068115 4.965471267700195 0.2696986794471741
3.6491055488586426 4.976622581481934 0.2694369852542877
3.612675428390503 4.972290992736816 0.26834648847579956
3.5751852989196777 4.9661149978637695 0.2671687602996826
3.5407190322875977 4.963773727416992 0.26620912551879883
0.0 0.0 0.0
0.0 0.0 0.0
2.5045053958892822 3.610132932662964 0.1918380707502365
2.4938223361968994 3.6284360885620117 0.19223064184188843
2.18052077293396 3.202436923980713 0.1691560000181198
2.126861095428467 3.1531152725219727 0.16605901718139648
2.1108627319335938 3.1590428352355957 0.16588453948497772
1.7524199485778809 2.6475448608398438 0.13862241804599762
1.709627628326416 2.6075432300567627 0.13613611459732056
1.6797335147857666 2.5864906311035156 0.13465304672718048
1.666270136833191 2.5904343128204346 0.1344785839319229
3.1236331462860107 4.902984142303467 0.2538212239742279
1.3253298997879028 2.100461483001709 0.10843779891729355
1.3177406787872314 2.1087660789489746 0.10856866091489792
1.3106298446655273 2.117893695831299 0.10874313116073608
2.5395894050598145 4.144114017486572 0.2122083306312561
2.4971237182617188 4.115013122558594 0.21015821397304535
2.1997392177581787 3.660874366760254 0.18647287786006927
0.0 0.0 0.0
1.2002263069152832 2.037519693374634 0.10324709117412567
1.197364330291748 2.053093433380127 0.10377053171396255
1.185896873474121 2.0539722442626953 0.1035524308681488
2.7747433185577393 4.854647636413574 0.2441377192735672
1.759763240814209 3.110276460647583 0.15602655708789825
1.7515451908111572 3.1275134086608887 0.15650635957717896
2.679961919784546 4.834630489349365 0.2413460910320282
0.8693013191223145 1.5844779014587402 0.07890747487545013
0.85999596118927 1.583866000175476 0.07868938148021698
0.8535497784614563 1.5884833335876465 0.07873299717903137
0.845672607421875 1.590428352355957 0.07864575833082199
2.138911485671997 4.065271854400635 0.20056194067001343
2.11377215385437 4.06038761138916 0.19986404478549957
1.3279770612716675 2.578342914581299 0.1266270875930786
1.3103643655776978 2.571650743484497 0.12601642310619354
1.2824928760528564 2.544335126876831 0.1244025006890297
1.262909173965454 2.532919406890869 0.12357372790575027
1.2434495687484741 2.521381378173828 0.12274496257305145
2.3374242782592773 4.792267322540283 0.23279668390750885
1.6919028759002686 3.5075576305389404 0.17002837359905243
1.6722811460494995 3.505889415740967 0.16959218680858612
2.2195188999176025 4.705889701843262 0.22716978192329407
2.183342456817627 4.682028293609619 0.22555586695671082
2.1858975887298584 4.741410255432129 0.2279549241065979
2.1743032932281494 4.770902156829834 0.2289145439863205
2.147310733795166 4.766680717468262 0.22826026380062103
0.9110634326934814 2.0462071895599365 0.09779466688632965
0.9013217687606812 2.0483341217041016 0.09770742803812027
0.8887903690338135 2.044001817703247 0.09731485694646835
0.0 0.0 0.0
1.2843233346939087 3.0255610942840576 0.14350779354572296
1.2610644102096558 3.0071818828582764 0.1423736810684204
0.6400235295295715 1.5450936555862427 0.07301885634660721
0.6351673007011414 1.5524948835372925 0.07323695719242096
0.6265159249305725 1.5506199598312378 0.07301885634660721
0.6208548545837402 1.5561226606369019 0.07314971089363098
0.612228274345398 1.5541691780090332 0.07293161749839783
1.8333425521850586 4.714239597320557 0.22084496915340424
1.8009401559829712 4.691415309906006 0.21940553188323975
1.325251817703247 3.497795820236206 0.16331098973751068
1.3148757219314575 3.516645669937134 0.16392166912555695
1.7379943132400513 4.710837364196777 0.2192310392856598
0.9161184430122375 2.5169055461883545 0.11694358289241791
0.907153308391571 2.526520252227783 0.11720529198646545
0.8947867751121521 2.5266873836517334 0.11703082174062729
0.8715661764144897 2.4956698417663574 0.11541690677404404
0.8496094346046448 2.467332363128662 0.11393384635448456
0.8388356566429138 2.4710159301757812 0.11393384635448456
0.8274118304252625 2.472757577896118 0.11384660750627518
0.0 0.0 0.0
0.0 0.0 0.0
0.0 0.0 0.0
0.0 0.0 0.0
1.4538112878799438 4.681802272796631 0.2140403389930725
1.426358938217163 4.665172100067139 0.21299348771572113
0.6046648621559143 2.0089774131774902 0.09160071611404419
0.5961771011352539 2.01255464553833 0.09164433181285858
0.5865513682365417 2.0122592449188232 0.09151347726583481
0.5714317560195923 1.9927115440368652 0.09051022678613663
0.5562228560447693 1.9721089601516724 0.08946336805820465
0.5452097058296204 1.9658527374267578 0.08907078951597214
0.5355757474899292 1.9643574953079224 0.08889631181955338
0.5277753472328186 1.9695706367492676 0.08902717381715775
0.9065876007080078 3.44325852394104 0.15545949339866638
0.8903042674064636 3.442345142364502 0.15524141490459442
1.1758060455322266 4.629465579986572 0.2085442990064621
0.8481454849243164 3.401514768600464 0.1530604362487793
0.8332955837249756 3.4051830768585205 0.1530604362487793
0.8158643245697021 3.3981008529663086 0.1525806188583374
0.5811930298805237 2.468076705932617 0.11070600897073746
0.5701938271522522 2.469615936279297 0.11066239327192307
0.5556642413139343 2.4555153846740723 0.10992086678743362
0.5410524010658264 2.4403598308563232 0.1091357097029686
0.529127299785614 2.4368395805358887 0.10887399315834045
0.5178664326667786 2.4361934661865234 0.10874313116073608
0.5070282816886902 2.4374518394470215 0.10869951546192169
0.5545523762702942 2.725505828857422 0.12143637984991074
0.5826134085655212 2.9287683963775635 0.1303783506155014
0.5709726810455322 2.937166929244995 0.13064007461071014
0.8330341577529907 4.387361526489258 0.19497866928577423
0.8395556807518005 4.529460430145264 0.2011289894580841
0.8290294408798218 4.584202289581299 0.20339719951152802
0.5078274607658386 2.8797812461853027 0.1276739537715912
0.4961033761501312 2.886892795562744 0.12789204716682434
0.7641711831092834 4.566086769104004 0.20213225483894348
0.7448831796646118 4.573321342468262 0.20230671763420105
0.7235146760940552 4.567647457122803 0.20191414654254913
0.5146499276161194 3.3433992862701416 0.14769524335861206
0.21975326538085938 1.4702516794204712 0.06490565091371536
0.2134794294834137 1.4721852540969849 0.06494927406311035
0.20761004090309143 1.4770599603652954 0.06512374430894852
0.20116323232650757 1.4779517650604248 0.06512374430894852
0.19327802956104279 1.4679200649261475 0.06464393436908722
0.5744839906692505 4.515264511108398 0.19872993230819702
0.5477145910263062 4.460215091705322 0.19620001316070557
0.5246074795722961 4.431806564331055 0.19484780728816986
0.5131829977035522 4.503537178039551 0.1979011595249176
0.4970088303089142 4.537513256072998 0.1992969959974289
0.4764745235443115 4.532683372497559 0.19899165630340576
0.19400925934314728 1.9264107942581177 0.08453437685966492
0.18617656826972961 1.9332057237625122 0.08479609340429306
0.1775568127632141 1.9320100545883179 0.08470885455608368
0.1682543158531189 1.9228137731552124 0.08427266031503677
0.37524762749671936 4.515117645263672 0.19781392812728882
0.3552297055721283 4.512727737426758 0.19763945043087006
0.1406274288892746 1.8919734954833984 0.08283321559429169
0.13230116665363312 1.8915725946426392 0.0827895998954773
0.12600712478160858 1.9220390319824219 0.08409818261861801
0.13555528223514557 2.215742588043213 0.09692228585481644
0.152230367064476 2.6801226139068604 0.11720529198646545
0.14325447380542755 2.7326407432556152 0.11947350203990936
0.11545901000499725 2.4029359817504883 0.10503549128770828
0.10279353708028793 2.3535120487213135 0.10285451263189316
0.09409303218126297 2.393869161605835 0.10459928959608078
0.09557665884494781 2.7357234954833984 0.11951713263988495
0.08608102053403854 2.8160009384155273 0.1230066791176796
0.07397636771202087 2.823340654373169 0.12331201136112213
0.09410975873470306 4.309865474700928 0.1882176548242569
0.07776437699794769 4.451079845428467 0.19436800479888916
0.058591078966856 4.470357418060303 0.19519677758216858
0.03904140740633011 4.465575218200684 0.19497866928577423
0.006566945463418961 1.4995570182800293 0.06547269970178604
2.393641807429958e-05 1.5025686025619507 0.06560356169939041
-0.00649745250120759 1.4945621490478516 0.06525460630655289
-0.012948972173035145 1.486527442932129 0.06490565091371536
-0.019434990361332893 1.4864567518234253 0.06490565091371536
-0.07763998210430145 4.452081203460693 0.19441162049770355
-0.09713027626276016 4.4546966552734375 0.19454246759414673
-0.116514191031456 4.452232837677002 0.19445523619651794
-0.13551253080368042 4.437702178955078 0.19384457170963287
-0.0 0.0 0.0
-0.07590344548225403 1.9326674938201904 0.08444713801145554
-0.0845533162355423 1.937308430671692 0.08466523140668869
-0.09324511885643005 1.9419105052947998 0.08488333225250244
-0.10501034557819366 2.0043389797210693 0.08763135224580765
-0.13289329409599304 2.3409974575042725 0.10237470269203186
-0.0 0.0 0.0
-0.0 0.0 0.0
-0.16443020105361938 2.352013349533081 0.10294175893068314
-0.173358753323555 2.3333399295806885 0.10215660184621811
-0.1695885956287384 2.1552786827087402 0.09439235180616379
-0.1607942134141922 1.9354822635650635 0.08479609340429306
-0.16540725529193878 1.8909711837768555 0.08287683874368668
-0.17292533814907074 1.8822726011276245 0.08252788335084915
-0.42325836420059204 4.396465301513672 0.1928413063287735
-0.4432380199432373 4.402529239654541 0.19319027662277222
-0.4624432921409607 4.400553226470947 0.19319027662277222
-0.48174849152565 4.399486541748047 0.1932338923215866
-0.5008270144462585 4.396350383758545 0.19319027662277222
-0.5200048089027405 4.394123077392578 0.19319027662277222
-0.5391726493835449 4.391812324523926 0.19319027662277222
-0.558330237865448 4.389418125152588 0.19319027662277222
-0.577477216720581 4.386940002441406 0.19319027662277222
-0.596747875213623 4.385368347167969 0.1932338923215866
-0.615737795829773 4.3817338943481445 0.19319027662277222
-0.6288303732872009 4.337479114532471 0.19135825335979462
-0.6064074635505676 4.058032512664795 0.17914484441280365
-0.6209167838096619 4.034611701965332 0.17822881042957306
-0.6938343048095703 4.381174087524414 0.19367007911205292
-0.7092508673667908 4.355425834655762 0.19266684353351593
-0.5450731515884399 3.257566213607788 0.144205704331398
-0.5597891211509705 3.258110761642456 0.14433656632900238
-0.5694897770881653 3.2300565242767334 0.14320245385169983
-0.7750228047370911 4.286346912384033 0.19018052518367767
-0.5175551176071167 2.7927422523498535 0.12400992214679718
-0.5315990447998047 2.8002724647521973 0.12444611638784409
-0.5441935658454895 2.7998876571655273 0.12453334778547287
