# .PCD v0.7 - Point Cloud Data file format
VERSION 0.7
FIELDS x y z
SIZE 4 4 4
TYPE F F F
COUNT 1 1 1
WIDTH 909
HEIGHT 1
VIEWPOINT 0 0 0 1 0 0 0
POINTS 909
DATA ascii
1.508345603942871 -3.387864112854004 -0.16191516816616058
2.1365442276000977 -4.7430419921875 -0.22712615132331848
2.16011905670166 -4.74003791809082 -0.2274314910173416
2.181617021560669 -4.732382297515869 -0.2275187224149704
2.2014007568359375 -4.721007347106934 -0.2274314910173416
2.2189958095550537 -4.705031871795654 -0.22712615132331848
2.2429447174072266 -4.702518463134766 -0.227475106716156
2.2686500549316406 -4.703485488891602 -0.2279985398054123
2.2904648780822754 -4.696235656738281 -0.22812938690185547
2.3104922771453857 -4.685300827026367 -0.22808577120304108
2.32690167427063 -4.667128562927246 -0.22769321501255035
2.340498685836792 -4.64354944229126 -0.2270389199256897
2.3480379581451416 -4.608367919921875 -0.22581756114959717
0.0 -0.0 -0.0
2.090623140335083 -4.016122341156006 -0.19768306612968445
2.1178953647613525 -4.025529861450195 -0.19859908521175385
2.1326255798339844 -4.010957717895508 -0.1983373761177063
2.1538891792297363 -4.008654594421387 -0.19868631660938263
2.1775567531585693 -4.010632514953613 -0.1992533802986145
2.2056069374084473 -4.020362377166748 -0.2002129852771759
2.235236406326294 -4.03254508972168 -0.20130348205566406
2.2596445083618164 -4.034957408905029 -0.20191414654254913
2.285099983215332 -4.0389723777771 -0.20261207222938538
2.31459903717041 -4.049779891967773 -0.20365892350673676
2.3402397632598877 -4.053485870361328 -0.204356849193573
2.3659565448760986 -4.05704402923584 -0.20505474507808685
2.3952982425689697 -4.066481113433838 -0.20605801045894623
2.423234462738037 -4.07316255569458 -0.20693038403987885
2.4502453804016113 -4.077964782714844 -0.20771552622318268
2.477862596511841 -4.083462715148926 -0.2085442990064621
2.5087060928344727 -4.093908309936523 -0.20963478088378906
2.5365335941314697 -4.099064350128174 -0.21046355366706848
2.562335968017578 -4.100666522979736 -0.21111783385276794
2.5871341228485107 -4.100430965423584 -0.21168489754199982
2.6098320484161377 -4.096687316894531 -0.21207748353481293
2.6347081661224365 -4.096183776855469 -0.2126445174217224
2.6596293449401855 -4.095541477203369 -0.2132115662097931
2.680760622024536 -4.0889105796813965 -0.21347327530384064
2.705744504928589 -4.088005065917969 -0.2140403389930725
2.729661226272583 -4.08529806137085 -0.2145201563835144
2.752488374710083 -4.080802917480469 -0.21491272747516632
2.773641586303711 -4.073709011077881 -0.21517443656921387
2.7942192554473877 -4.065684795379639 -0.21539254486560822
2.818765878677368 -4.063304424285889 -0.2159159779548645
2.8404793739318848 -4.056695461273193 -0.21622131764888763
0.0 -0.0 -0.0
0.0 -0.0 -0.0
0.0 -0.0 -0.0
0.0 -0.0 -0.0
0.0 -0.0 -0.0
0.0 -0.0 -0.0
0.0 -0.0 -0.0
0.0 -0.0 -0.0
0.0 -0.0 -0.0
0.0 -0.0 -0.0
0.0 -0.0 -0.0
0.0 -0.0 -0.0
0.0 -0.0 -0.0
0.0 -0.0 -0.0
0.0 -0.0 -0.0
0.0 -0.0 -0.0
0.0 -0.0 -0.0
0.0 -0.0 -0.0
0.0 -0.0 -0.0
0.0 -0.0 -0.0
0.0 -0.0 -0.0
0.0 -0.0 -0.0
0.0 -0.0 -0.0
0.0 -0.0 -0.0
0.0 -0.0 -0.0
3.045783042907715 -3.442692518234253 -0.200692817568779
0.0 -0.0 -0.0
0.0 -0.0 -0.0
0.0 -0.0 -0.0
0.0 -0.0 -0.0
0.0 -0.0 -0.0
0.0 -0.0 -0.0
0.0 -0.0 -0.0
2.9990286827087402 -3.1603736877441406 -0.19022415578365326
2.998281955718994 -3.1321027278900146 -0.18930815160274506
3.0209414958953857 -3.12833309173584 -0.18987520039081573
3.0840585231781006 -3.1659319400787354 -0.19297218322753906
3.1951754093170166 -3.251493215560913 -0.19903527200222015
0.0 -0.0 -0.0
0.0 -0.0 -0.0
0.0 -0.0 -0.0
0.0 -0.0 -0.0
0.0 -0.0 -0.0
0.0 -0.0 -0.0
0.0 -0.0 -0.0
0.0 -0.0 -0.0
0.0 -0.0 -0.0
0.0 -0.0 -0.0
0.0 -0.0 -0.0
3.2482709884643555 -2.976547956466675 -0.1923615038394928
3.278975486755371 -2.9784679412841797 -0.19340835511684418
3.3075313568115234 -2.9781711101531982 -0.19432438910007477
1.898383617401123 -1.6944043636322021 -0.11109858751296997
1.9057587385177612 -1.6861051321029663 -0.11109858751296997
1.9018306732177734 -1.6678928136825562 -0.11044429242610931
1.90155029296875 -1.6530241966247559 -0.11000809818506241
1.903446912765503 -1.6401464939117432 -0.10970276594161987
1.9037481546401978 -1.625986099243164 -0.10931018739938736
1.9024372100830078 -1.6105633974075317 -0.10883037745952606
1.8926095962524414 -1.5881191492080688 -0.10787074267864227
1.8818546533584595 -1.5651527643203735 -0.10686749964952469
1.8763316869735718 -1.546759009361267 -0.10616958886384964
1.8730052709579468 -1.5303398370742798 -0.10560253262519836
1.8703480958938599 -1.5146081447601318 -0.10507910698652267
1.8675892353057861 -1.4989287853240967 -0.10455567389726639
1.864729642868042 -1.4833027124404907 -0.1040322482585907
1.8609845638275146 -1.467111587524414 -0.10346519201993942
1.8571339845657349 -1.4509814977645874 -0.10289814323186874
1.8523882627487183 -1.4343013763427734 -0.10228746384382248
1.8507030010223389 -1.4201234579086304 -0.10185126960277557
1.8465436697006226 -1.4041732549667358 -0.1012842208147049
1.8438762426376343 -1.3894891738891602 -0.1008044108748436
1.8531235456466675 -1.383821725845337 -0.10097888112068176
1.8639624118804932 -1.3792884349822998 -0.1012405976653099
1.8780195713043213 -1.3770498037338257 -0.10167679190635681
1.9131067991256714 -1.38998281955719 -0.10324709117412567
1.9815847873687744 -1.4265671968460083 -0.10660578310489655
2.036590576171875 -1.4527169466018677 -0.10922295600175858
2.0502524375915527 -1.449006199836731 -0.1096155196428299
2.0320043563842773 -1.4228553771972656 -0.10830693691968918
1.9815539121627808 -1.3746826648712158 -0.10529720038175583
1.9727132320404053 -1.3558378219604492 -0.104512058198452
1.9893457889556885 -1.3545269966125488 -0.10507910698652267
2.005175828933716 -1.352537989616394 -0.10560253262519836
2.0177037715911865 -1.3482164144515991 -0.10595149546861649
2.0310652256011963 -1.344362735748291 -0.106344074010849
2.044430732727051 -1.340417742729187 -0.10673663765192032
2.050260066986084 -1.3314845561981201 -0.10673663765192032
2.0577306747436523 -1.3236069679260254 -0.1068238839507103
2.087921142578125 -1.3301830291748047 -0.10808885097503662
2.135106325149536 -1.3471827507019043 -0.11022619903087616
2.1587557792663574 -1.3489717245101929 -0.11114220321178436
2.1612231731414795 -1.3374366760253906 -0.1109677255153656
2.1619272232055664 -1.3248618841171265 -0.11070600897073746
2.16768741607666 -1.3154162168502808 -0.11070600897073746
2.179400682449341 -1.3095473051071167 -0.11101134121417999
2.195396900177002 -1.3061553239822388 -0.11153478175401688
2.197632074356079 -1.294535517692566 -0.11136030405759811
3.4468541145324707 -2.010194778442383 -0.17421583831310272
3.4443447589874268 -1.9886422157287598 -0.17364878952503204
3.434774398803711 -1.963183879852295 -0.17273278534412384
3.432003974914551 -1.9417827129364014 -0.17216573655605316
3.429983615875244 -1.920931339263916 -0.17164228856563568
3.4260997772216797 -1.8991661071777344 -0.1710316240787506
3.42997407913208 -1.8817962408065796 -0.17081353068351746
3.426738739013672 -1.8606150150299072 -0.17024646699428558
3.419863700866699 -1.837606430053711 -0.16950494050979614
3.4216744899749756 -1.8193837404251099 -0.1691996157169342
3.4180867671966553 -1.798389196395874 -0.16863255202770233
3.4081778526306152 -1.7742315530776978 -0.16776016354560852
3.412334442138672 -1.7575139999389648 -0.16758570075035095
3.429762125015259 -1.747597336769104 -0.16806550323963165
3.438246965408325 -1.7330652475357056 -0.16810911893844604
3.436835289001465 -1.713588833808899 -0.16767293214797974
3.4424877166748047 -1.6976927518844604 -0.16758570075035095
3.4471685886383057 -1.6813421249389648 -0.16745483875274658
3.449972629547119 -1.6641147136688232 -0.16723673045635223
3.4526925086975098 -1.6468950510025024 -0.16701863706111908
3.449002265930176 -1.6267001628875732 -0.1664952039718628
3.4551620483398438 -1.6112133264541626 -0.1664515882730484
3.470324754714966 -1.5998865365982056 -0.1668441742658615
3.468181610107422 -1.5805860757827759 -0.166407972574234
3.461381673812866 -1.5592831373214722 -0.16575367748737335
3.4626762866973877 -1.5417269468307495 -0.1654919534921646
3.4574828147888184 -1.5213727951049805 -0.16492490470409393
3.4448482990264893 -1.49790620803833 -0.16400890052318573
3.437582492828369 -1.476945400238037 -0.16335460543632507
3.4550297260284424 -1.4666165113449097 -0.16387803852558136
3.4871928691864014 -1.462345004081726 -0.1650993824005127
3.5046164989471436 -1.4517033100128174 -0.16562281548976898
3.499821424484253 -1.4318580627441406 -0.1650993824005127
3.490288734436035 -1.4102113246917725 -0.16435785591602325
3.485273838043213 -1.3905260562896729 -0.16383442282676697
3.4810829162597656 -1.3712776899337769 -0.16335460543632507
3.474928617477417 -1.3513683080673218 -0.1627875566482544
3.481724977493286 -1.336551308631897 -0.16283118724822998
3.495931625366211 -1.3245322704315186 -0.1632237434387207
3.4969987869262695 -1.3075164556503296 -0.16300566494464874
3.4857993125915527 -1.286021113395691 -0.16222050786018372
3.480112075805664 -1.2666988372802734 -0.16169707477092743
3.478083610534668 -1.2488011121749878 -0.1613481193780899
3.4712564945220947 -1.2292776107788086 -0.16078107059001923
3.469985008239746 -1.211814045906067 -0.1604757308959961
3.471461057662964 -1.1953608989715576 -0.16030125319957733
3.456777334213257 -1.173458456993103 -0.15938524901866913
3.4467058181762695 -1.1532920598983765 -0.15868733823299408
3.4422173500061035 -1.13511323928833 -0.15825115144252777
3.437636137008667 -1.1169956922531128 -0.15781494975090027
3.4339137077331543 -1.099244236946106 -0.15742237865924835
3.4310548305511475 -1.081847071647644 -0.15707340836524963
3.443375587463379 -1.069236159324646 -0.15742237865924835
3.45565128326416 -1.0565383434295654 -0.15777133405208588
3.4516186714172363 -1.0388587713241577 -0.15737876296043396
3.4465396404266357 -1.0209509134292603 -0.15694256126880646
3.440410852432251 -1.002827525138855 -0.15646274387836456
3.436110734939575 -0.9853278994560242 -0.15607017278671265
3.437492847442627 -0.9695121645927429 -0.15593932569026947
3.4474663734436035 -0.9561059474945068 -0.15620103478431702
3.4612441062927246 -0.9436823725700378 -0.15663722157478333
3.4624338150024414 -0.9277951717376709 -0.15650635957717896
3.483839273452759 -0.9172573089599609 -0.15729151666164398
3.5303661823272705 -0.9130541682243347 -0.15921077132225037
3.54787278175354 -0.9010844230651855 -0.15982145071029663
3.5556483268737793 -0.8865621089935303 -0.1599959135055542
3.5458970069885254 -0.8677147030830383 -0.15938524901866913
3.495248794555664 -0.8391735553741455 -0.15694256126880646
3.4560887813568115 -0.8138389587402344 -0.15502330660820007
3.443058729171753 -0.7949305176734924 -0.15428178012371063
3.4367501735687256 -0.777694821357727 -0.15384557843208313
3.4410862922668457 -0.7629080414772034 -0.15388920903205872
3.4385244846343994 -0.7466143369674683 -0.15362748503684998
3.426114082336426 -0.7282803058624268 -0.15292958915233612
3.4214344024658203 -0.7116965055465698 -0.1525806188583374
3.420591115951538 -0.6959641575813293 -0.15240614116191864
3.4177162647247314 -0.679862916469574 -0.1521444320678711
3.4069204330444336 -0.6622750163078308 -0.15153375267982483
3.40487003326416 -0.6464714407920837 -0.15131565928459167
3.4066762924194336 -0.6314266920089722 -0.15127204358577728
3.3946523666381836 -0.6138895153999329 -0.15061774849891663
3.381556749343872 -0.5962958335876465 -0.14991983771324158
3.380187749862671 -0.5808585286140442 -0.14974536001682281
3.378748655319214 -0.5654445886611938 -0.14957088232040405
0.0 -0.0 -0.0
0.0 -0.0 -0.0
0.0 -0.0 -0.0
0.0 -0.0 -0.0
3.397200584411621 -0.4926064908504486 -0.14987622201442719
3.3824992179870605 -0.47541487216949463 -0.14913469552993774
3.370682716369629 -0.4587652087211609 -0.14852401614189148
3.368690252304077 -0.4435318410396576 -0.1483495533466339
3.3745577335357666 -0.42933332920074463 -0.14852401614189148
3.3803653717041016 -0.4150920510292053 -0.14869849383831024
3.3732151985168457 -0.3992815911769867 -0.14830592274665833
3.3729400634765625 -0.38433322310447693 -0.14821869134902954
3.3765709400177 -0.369829922914505 -0.14830592274665833
3.3761656284332275 -0.354884535074234 -0.14821869134902954
3.379669666290283 -0.34035009145736694 -0.14830592274665833
3.366206169128418 -0.32416385412216187 -0.14765162765979767
3.3536603450775146 -0.30819302797317505 -0.1470409482717514
3.352982759475708 -0.2933828830718994 -0.14695371687412262
3.347261667251587 -0.2781708240509033 -0.14664839208126068
3.338484048843384 -0.2627791166305542 -0.14621219038963318
3.31070613861084 -0.24606238305568695 -0.14494723081588745
3.2818496227264404 -0.22952339053153992 -0.14363865554332733
3.2768383026123047 -0.2148093730211258 -0.1433769315481186
3.276747465133667 -0.20044846832752228 -0.1433333158493042
3.277590751647949 -0.18614909052848816 -0.1433333158493042
3.287350654602051 -0.17231683433055878 -0.14372588694095612
3.29904842376709 -0.1584988385438919 -0.144205704331398
3.3027029037475586 -0.1442333161830902 -0.14433656632900238
3.303300619125366 -0.12982122600078583 -0.14433656632900238
3.3168156147003174 -0.11586007475852966 -0.14490361511707306
3.322282314300537 -0.10153926908969879 -0.1451217085123062
3.307713031768799 -0.08664972335100174 -0.14446742832660675
3.299070358276367 -0.07202008366584778 -0.14407484233379364
3.288365364074707 -0.0574326254427433 -0.14359502494335175
3.2666075229644775 -0.04279600456357002 -0.14263540506362915
3.254775047302246 -0.02843763679265976 -0.14211197197437286
3.2548680305480957 -0.014235776849091053 -0.14211197197437286
3.247905969619751 -3.357278910698369e-05 -0.14180663228034973
3.237884759902954 0.014094557613134384 -0.14137044548988342
3.241788387298584 0.02825714647769928 -0.14154492318630219
3.312560796737671 0.043329548090696335 -0.14464189112186432
3.511120319366455 0.06125052645802498 -0.15332214534282684
3.510819673538208 0.0765700489282608 -0.15332214534282684
3.479492425918579 0.09107771515846252 -0.15196995437145233
3.343254566192627 0.10211106389760971 -0.14603771269321442
3.2399380207061768 0.1131075918674469 -0.14154492318630219
3.2114620208740234 0.12614543735980988 -0.14032357931137085
3.2028961181640625 0.1398082971572876 -0.13997462391853333
3.2002599239349365 0.15368635952472687 -0.13988737761974335
3.211530923843384 0.16827592253684998 -0.14041081070899963
3.2147557735443115 0.1825137436389923 -0.1405852884054184
3.2079458236694336 0.19617311656475067 -0.14032357931137085
3.2050654888153076 0.21003782749176025 -0.14023633301258087
3.2051150798797607 0.22409018874168396 -0.14027994871139526
3.1971325874328613 0.23755477368831635 -0.13997462391853333
3.1910860538482666 0.251110702753067 -0.13975653052330017
3.18996000289917 0.265032023191452 -0.13975653052330017
3.1857874393463135 0.27868708968162537 -0.1396256685256958
3.186530590057373 0.29276779294013977 -0.13971289992332458
3.1762731075286865 0.3058071434497833 -0.13932032883167267
3.157015800476074 0.31786176562309265 -0.13853517174720764
3.1565921306610107 0.3317381739616394 -0.13857878744602203
3.162066698074341 0.34626948833465576 -0.13888414204120636
3.1535770893096924 0.3592716455459595 -0.13857878744602203
3.144042730331421 0.3720889389514923 -0.1382298469543457
3.1374311447143555 0.3851950764656067 -0.13801173865795135
3.1337385177612305 0.3986288905143738 -0.13792450726032257
3.129988193511963 0.41203778982162476 -0.1378372609615326
3.1182613372802734 0.42434388399124146 -0.13740107417106628
3.107476234436035 0.43669450283050537 -0.13700848817825317
3.1035637855529785 0.4499625861644745 -0.1369212567806244
3.1005828380584717 0.4633524715900421 -0.13687764108181
3.093594551086426 0.47611701488494873 -0.13665954768657684
3.0865540504455566 0.48882946372032166 -0.1364414542913437
3.0843915939331055 0.5022923946380615 -0.1364414542913437
3.0880825519561768 0.5167350769042969 -0.13670316338539124
3.0877678394317627 0.53054279088974 -0.1367904096841812
3.076568603515625 0.5424493551254272 -0.1363978236913681
3.0604090690612793 0.5533795356750488 -0.13578715920448303
3.05108904838562 0.5654534697532654 -0.1354818195104599
3.0485928058624268 0.5787609219551086 -0.1354818195104599
3.056826114654541 0.5941541790962219 -0.1359616369009018
3.0571439266204834 0.6080710887908936 -0.13609249889850616
3.0476088523864746 0.6200104355812073 -0.13578715920448303
3.039005756378174 0.6320815682411194 -0.1355254352092743
3.02253794670105 0.6424278616905212 -0.13491477072238922
3.015800714492798 0.6547621488571167 -0.13474029302597046
3.023644208908081 0.6702932715415955 -0.13522011041641235
3.0255627632141113 0.6845824122428894 -0.1354382038116455
3.021573305130005 0.6975525617599487 -0.13539458811283112
3.0126662254333496 0.7093561887741089 -0.13513286411762238
3.009542465209961 0.7224946618080139 -0.13513286411762238
3.004420518875122 0.7351444959640503 -0.1350456327199936
2.992460012435913 0.7460715770721436 -0.13465304672718048
2.9862711429595947 0.7583837509155273 -0.1345221996307373
2.979064702987671 0.7704060673713684 -0.13434772193431854
2.975674867630005 0.7833973169326782 -0.13434772193431854
2.9693334102630615 0.7955979704856873 -0.13421685993671417
2.9571588039398193 0.8061815500259399 -0.13382428884506226
2.9430229663848877 0.8161401748657227 -0.13334447145462036
2.931741714477539 0.8268043994903564 -0.13299551606178284
2.9194629192352295 0.8371103405952454 -0.13260294497013092
2.9157824516296387 0.8498408794403076 -0.13260294497013092
2.908215045928955 0.8614203333854675 -0.13242846727371216
2.898688793182373 0.8723741173744202 -0.1321667581796646
2.895810127258301 0.8853057622909546 -0.132210373878479
2.889057159423828 0.8970438838005066 -0.13207951188087463
2.886068344116211 0.9099416136741638 -0.13212312757968903
2.8811192512512207 0.9222212433815002 -0.13207951188087463
2.8675663471221924 0.9316965937614441 -0.13164331018924713
2.853037118911743 0.9407584071159363 -0.13116350769996643
2.8583791255950928 0.956368088722229 -0.13159969449043274
2.8645853996276855 0.972363293170929 -0.13207951188087463
2.8631491661071777 0.9858288764953613 -0.132210373878479
2.866365909576416 1.0009472370147705 -0.13255931437015533
2.8544373512268066 1.0107767581939697 -0.132210373878479
2.8330748081207275 1.0171453952789307 -0.13142521679401398
2.8079559803009033 1.0219802856445312 -0.13046559691429138
2.787536144256592 1.0283443927764893 -0.12972407042980194
2.7820866107940674 1.0401475429534912 -0.12968043982982635
2.771916389465332 1.050153136253357 -0.1294187307357788
2.7579808235168457 1.0586577653884888 -0.1289825439453125
2.752403974533081 1.070319414138794 -0.12893891334533691
2.7477078437805176 1.082318902015686 -0.12893891334533691
2.7420313358306885 1.0939275026321411 -0.12889529764652252
2.7409372329711914 1.107378363609314 -0.12906977534294128
2.735154628753662 1.1189491748809814 -0.1290261596441269
2.7256312370300293 1.128961205482483 -0.12880805134773254
2.7179152965545654 1.1396843194961548 -0.12867718935012817
2.7119970321655273 1.1511422395706177 -0.12863357365131378
2.7078661918640137 1.1633589267730713 -0.12867718935012817
2.7027642726898193 1.1751631498336792 -0.12867718935012817
2.697611093521118 1.1869449615478516 -0.12867718935012817
2.692406177520752 1.1987041234970093 -0.12867718935012817
2.684417724609375 1.2092095613479614 -0.1285463273525238
2.6745705604553223 1.2188396453857422 -0.12832824885845184
2.6628756523132324 1.2275701761245728 -0.1280229091644287
2.6493449211120605 1.235377550125122 -0.1276303380727768
2.642122268676758 1.2460733652114868 -0.12754309177398682
2.6483824253082275 1.2631810903549194 -0.1281101405620575
2.6527442932128906 1.2794992923736572 -0.1285899579524994
2.6489319801330566 1.2919377088546753 -0.12867718935012817
2.6441657543182373 1.3039253950119019 -0.12872081995010376
2.632192611694336 1.3123300075531006 -0.12841548025608063
2.6193039417266846 1.3202050924301147 -0.1280665248632431
2.6179697513580322 1.333889365196228 -0.12828463315963745
2.6210062503814697 1.3498739004135132 -0.12872081995010376
2.61686372756958 1.3622199296951294 -0.12880805134773254
2.6055901050567627 1.3708341121673584 -0.1285463273525238
2.5987017154693604 1.3817211389541626 -0.1285027116537094
2.5935282707214355 1.3935197591781616 -0.1285463273525238
2.58039927482605 1.4010093212127686 -0.12819738686084747
2.5628747940063477 1.406008243560791 -0.1276303380727768
2.5514729022979736 1.414271354675293 -0.12736861407756805
2.538304567337036 1.4214855432510376 -0.12701965868473053
2.5294694900512695 1.4310715198516846 -0.12688879668712616
2.5275378227233887 1.4445732831954956 -0.12710689008235931
2.52380633354187 1.457086443901062 -0.12723775207996368
2.523465871810913 1.4716076850891113 -0.12754309177398682
2.526489734649658 1.4881818294525146 -0.1280229091644287
2.525982618331909 1.5027670860290527 -0.12832824885845184
2.517688751220703 1.5127452611923218 -0.12824100255966187
2.5033774375915527 1.5190517902374268 -0.12784843146800995
2.49076247215271 1.5263062715530396 -0.12754309177398682
2.4713358879089355 1.5292741060256958 -0.12688879668712616
2.4578616619110107 1.5358073711395264 -0.12653984129428864
2.451982259750366 1.5470503568649292 -0.12658347189426422
2.4494216442108154 1.5604181289672852 -0.12680156528949738
2.444270133972168 1.572171688079834 -0.12688879668712616
2.436549425125122 1.582277774810791 -0.12684518098831177
2.4329640865325928 1.5950850248336792 -0.12701965868473053
2.425981044769287 1.6056855916976929 -0.12701965868473053
2.4147984981536865 1.6134803295135498 -0.12680156528949738
2.406079053878784 1.6228841543197632 -0.1267143338918686
2.3973233699798584 1.6322425603866577 -0.1266270875930786
2.3934719562530518 1.6449506282806396 -0.12680156528949738
2.3961222171783447 1.6622117757797241 -0.12732499837875366
2.402759075164795 1.6823922395706177 -0.1280665248632431
2.405186176300049 1.6997793912887573 -0.1285899579524994
2.394493341445923 1.707937240600586 -0.12841548025608063
2.3724234104156494 1.7078622579574585 -0.1276303380727768
2.352825403213501 1.7093894481658936 -0.12697604298591614
2.343733072280884 1.7184576988220215 -0.12688879668712616
2.3378188610076904 1.729856252670288 -0.12697604298591614
2.3262460231781006 1.7370514869689941 -0.12675794959068298
2.3202404975891113 1.7483875751495361 -0.12684518098831177
2.3181564807891846 1.7627277374267578 -0.1271505206823349
2.308065414428711 1.7710012197494507 -0.12701965868473053
2.292416572570801 1.7749388217926025 -0.12658347189426422
2.279139280319214 1.7806190252304077 -0.1262781322002411
2.2666409015655518 1.7868355512619019 -0.12601642310619354
2.254913330078125 1.7935988903045654 -0.1257983148097992
2.240832805633545 1.7984181642532349 -0.12544935941696167
2.2189888954162598 1.7968615293502808 -0.12466420978307724
2.175539016723633 1.7774500846862793 -0.12265771627426147
2.1461777687072754 1.7691328525543213 -0.12143637984991074
2.141510486602783 1.7810355424880981 -0.1216108575463295
2.1566786766052246 1.8096277713775635 -0.12291943281888962
2.1823129653930664 1.8474228382110596 -0.1248386949300766
2.1863861083984375 1.867308259010315 -0.12553659081459045
2.1774609088897705 1.87617826461792 -0.12549297511577606
2.166991949081421 1.8836950063705444 -0.12536212801933289
2.1662635803222656 1.8997193574905396 -0.1257983148097992
2.172170639038086 1.921730875968933 -0.1266270875930786
2.1674916744232178 1.9345166683197021 -0.12684518098831177
2.17462158203125 1.957993745803833 -0.12776118516921997
2.169015645980835 1.9701504707336426 -0.12793566286563873
2.1338815689086914 1.9552979469299316 -0.12636536359786987
2.1113908290863037 1.9517053365707397 -0.12553659081459045
2.1028549671173096 1.9608993530273438 -0.12553659081459045
2.0928237438201904 1.9686870574951172 -0.12544935941696167
2.085663080215454 1.9791752099990845 -0.12553659081459045
2.0791726112365723 1.9903292655944824 -0.12566745281219482
2.068312406539917 1.997300386428833 -0.12553659081459045
1.9429306983947754 1.8926758766174316 -0.11842664331197739
1.7700480222702026 1.7393813133239746 -0.10835056751966476
1.7347705364227295 1.7196578979492188 -0.10664940625429153
1.7880046367645264 1.7879632711410522 -0.11040067672729492
2.0010390281677246 2.018531322479248 -0.12409715354442596
2.0279252529144287 2.0635838508605957 -0.12632174789905548
2.018902063369751 2.0724127292633057 -0.12632174789905548
2.0119223594665527 2.0833580493927 -0.12645260989665985
2.0083396434783936 2.0978899002075195 -0.12680156528949738
2.004668712615967 2.1124305725097656 -0.1271505206823349
1.9851642847061157 2.1102421283721924 -0.12649622559547424
1.959585189819336 2.101348400115967 -0.12544935941696167
1.9422597885131836 2.1010751724243164 -0.12492592632770538
1.9296990633010864 2.105847120285034 -0.12470783293247223
1.9218356609344482 2.1157257556915283 -0.12479507178068161
1.9119173288345337 2.1233487129211426 -0.12475144863128662
1.8946512937545776 2.1227266788482666 -0.12422801554203033
1.871469259262085 2.115260601043701 -0.12331201136112213
1.8543171882629395 2.1143927574157715 -0.12278857827186584
1.8437631130218506 2.1209557056427 -0.12270134687423706
1.8351433277130127 2.129737138748169 -0.12274496257305145
1.8264819383621216 2.138483762741089 -0.12278857827186584
1.819715976715088 2.1494829654693604 -0.1229630634188652
1.816741704940796 2.165055513381958 -0.12339925765991211
1.811110496520996 2.177570343017578 -0.12366096675395966
1.800321102142334 2.183910369873047 -0.12357372790575027
1.776868224143982 2.1747243404388428 -0.12261410057544708
1.7591888904571533 2.172363519668579 -0.1220470517873764
1.7503187656402588 2.180797815322876 -0.1220906674861908
1.7146657705307007 2.155576467514038 -0.12025865912437439
1.6743183135986328 2.123809337615967 -0.11807768046855927
1.6330511569976807 2.0901575088500977 -0.11580947786569595
1.3174817562103271 1.7015081644058228 -0.09395615756511688
1.2784191370010376 1.6660258769989014 -0.09168794751167297
1.263880968093872 1.6620453596115112 -0.09116452187299728
0.0 0.0 -0.0
1.6922729015350342 2.266169786453247 -0.1234864890575409
1.6942541599273682 2.2895936965942383 -0.1243588775396347
1.679521918296814 2.2905192375183105 -0.12400992214679718
1.6659883260726929 2.292976140975952 -0.12374820560216904
1.6542164087295532 2.2977912425994873 -0.12361734360456467
1.6435946226119995 2.304173707962036 -0.12357372790575027
1.6317954063415527 2.308875799179077 -0.1234428733587265
1.618267297744751 2.311063528060913 -0.12318115681409836
1.6075986623764038 2.317281723022461 -0.12313754111528397
1.6008676290512085 2.329214096069336 -0.12339925765991211
1.596312165260315 2.344434976577759 -0.12383545190095901
1.5938888788223267 2.3629729747772217 -0.12444611638784409
1.5935542583465576 2.384857177734375 -0.12523126602172852
1.588647484779358 2.400118350982666 -0.12566745281219482
1.5787078142166138 2.407862901687622 -0.1257110834121704
1.5540392398834229 2.392943859100342 -0.12457697838544846
1.4549461603164673 2.261903762817383 -0.1174233928322792
1.3548805713653564 2.1266767978668213 -0.11009533703327179
1.3279955387115479 2.1046862602233887 -0.1086558997631073
1.338388204574585 2.141808032989502 -0.11026981472969055
1.4268150329589844 2.3056414127349854 -0.118383027613163
1.474684476852417 2.4063971042633057 -0.12322477251291275
1.4771279096603394 2.4341609477996826 -0.12431526184082031
1.4582600593566895 2.4268815517425537 -0.12361734360456467
1.3664369583129883 2.2967066764831543 -0.11668186634778976
1.2367351055145264 2.0994975566864014 -0.10638768970966339
1.201893925666809 2.0608603954315186 -0.10416309535503387
1.2108736038208008 2.097231864929199 -0.10573339462280273
1.3231713771820068 2.315000057220459 -0.11642014980316162
1.392264485359192 2.4607443809509277 -0.1234428733587265
1.387372374534607 2.4772558212280273 -0.12396630644798279
1.354753851890564 2.443965435028076 -0.12200343608856201
0.8755484223365784 1.5958644151687622 -0.07947453111410141
0.8657165169715881 1.5944015979766846 -0.07921281456947327
0.8578057289123535 1.5964038372039795 -0.07912557572126389
0.8513010144233704 1.601013422012329 -0.07916919142007828
0.8405857682228088 1.597639560699463 -0.07882023602724075
1.309689998626709 2.515810012817383 -0.12383545190095901
1.2886364459991455 2.5019609928131104 -0.12287581712007523
1.2704501152038574 2.493317127227783 -0.12217790633440018
1.2586596012115479 2.4970524311065674 -0.1220906674861908
1.2508728504180908 2.508779287338257 -0.12239600718021393
1.2496358156204224 2.5339255332946777 -0.12335562705993652
1.2473269701004028 2.557312488555908 -0.12422801554203033
1.2383270263671875 2.567229986190796 -0.12444611638784409
1.229264259338379 2.5771172046661377 -0.12466420978307724
1.2188602685928345 2.584263563156128 -0.12475144863128662
1.2092616558074951 2.5931787490844727 -0.12492592632770538
1.2000267505645752 2.6029670238494873 -0.12514403462409973
1.1762285232543945 2.5809056758880615 -0.12383545190095901
0.9466550350189209 2.1014204025268555 -0.10062993317842484
0.9122825264930725 2.048945426940918 -0.09792552888393402
0.9137954711914062 2.076681613922119 -0.09905963391065598
1.055314064025879 2.4269657135009766 -0.11554776132106781
1.150408387184143 2.6775474548339844 -0.12723775207996368
1.1465219259262085 2.7009339332580566 -0.1281101405620575
1.1254535913467407 2.6837992668151855 -0.12706327438354492
0.6438469290733337 1.554323673248291 -0.07345505058765411
0.634788990020752 1.551570177078247 -0.07319333404302597
0.6283872723579407 1.5552514791488647 -0.07323695719242096
0.625297486782074 1.5672577619552612 -0.07367315143346786
0.6206501126289368 1.5755482912063599 -0.07393486052751541
1.0540904998779297 2.7104783058166504 -0.12697604298591614
1.0458343029022217 2.7243785858154297 -0.12741224467754364
1.0328751802444458 2.7261133193969727 -0.12728138267993927
1.0188711881637573 2.7249794006347656 -0.12701965868473053
0.9934854507446289 2.6928446292877197 -0.1253184974193573
0.94208824634552 2.5882537364959717 -0.12025865912437439
0.9108671545982361 2.5368635654449463 -0.11768511682748795
0.8901177644729614 2.513503074645996 -0.11642014980316162
0.8666253089904785 2.4815220832824707 -0.11476261168718338
0.850910484790802 2.4711105823516846 -0.11410832405090332
0.8523237109184265 2.5107486248016357 -0.11576585471630096
0.8889129161834717 2.6565561294555664 -0.12230876833200455
0.9101654887199402 2.7600326538085938 -0.12688879668712616
0.9049062132835388 2.7848808765411377 -0.12784843146800995
0.8933554887771606 2.790705442428589 -0.12793566286563873
0.8805695176124573 2.7926714420318604 -0.12784843146800995
0.0 0.0 -0.0
0.0 0.0 -0.0
0.6061044931411743 2.013760566711426 -0.09181880950927734
0.5978796482086182 2.0183019638061523 -0.09190605580806732
0.5871105194091797 2.0141775608062744 -0.09160071611404419
0.5703302621841431 1.9888702630996704 -0.09033575654029846
0.5567652583122253 1.9740320444107056 -0.08955060690641403
0.5476126670837402 1.9745171070098877 -0.08946336805820465
0.5424084663391113 1.9894181489944458 -0.09003041684627533
0.0 0.0 -0.0
0.7453146576881409 2.8307371139526367 -0.12780480086803436
0.734207034111023 2.8387982845306396 -0.1280229091644287
0.7235351800918579 2.8487532138824463 -0.12832824885845184
0.7115817666053772 2.8538217544555664 -0.12841548025608063
0.6943734288215637 2.8374907970428467 -0.12754309177398682
0.6393036246299744 2.662720203399658 -0.11956074833869934
0.5908109545707703 2.5089199542999268 -0.11253802478313446
0.5742393136024475 2.48713755607605 -0.1114475354552269
0.5746273994445801 2.5393147468566895 -0.11367212980985641
0.5542435646057129 2.499857187271118 -0.11179649829864502
0.5284913182258606 2.433910608291626 -0.10874313116073608
0.5182819366455078 2.438148021697998 -0.10883037745952606
0.5281884074211121 2.539175510406494 -0.11323593556880951
0.5812442302703857 2.8566904067993164 -0.12728138267993927
0.5765709280967712 2.898393392562866 -0.1290261596441269
0.5654440522193909 2.908726930618286 -0.12937510013580322
0.5534924864768982 2.9150924682617188 -0.12954957783222198
0.5376725792884827 2.900780439376831 -0.12880805134773254
0.5196768045425415 2.873605489730835 -0.12749947607517242
0.5055720210075378 2.866990804672241 -0.12710689008235931
0.4955957531929016 2.883938789367676 -0.12776118516921997
0.48630574345588684 2.905780792236328 -0.12863357365131378
0.4749072194099426 2.9157636165618896 -0.1289825439453125
0.45967957377433777 2.902020215988159 -0.12828463315963745
0.22707827389240265 1.4752033948898315 -0.0651673674583435
0.2204916775226593 1.4751920700073242 -0.06512374430894852
0.2137661576271057 1.4741626977920532 -0.06503650546073914
0.2077491134405136 1.4780492782592773 -0.0651673674583435
0.2014327198266983 1.4799317121505737 -0.0652109906077385
0.3947722911834717 2.998241424560547 -0.13203589618206024
0.38067758083343506 2.992006778717041 -0.13168692588806152
0.36822783946990967 2.9985973834991455 -0.13190503418445587
0.35572779178619385 3.005136013031006 -0.13212312757968903
0.3424990475177765 3.005666971206665 -0.13207951188087463
0.32948997616767883 3.0081257820129395 -0.13212312757968903
0.20377066731452942 1.9384623765945435 -0.0851014256477356
0.19501034915447235 1.9363510608673096 -0.08497057110071182
0.1859850287437439 1.931216835975647 -0.08470885455608368
0.17746537923812866 1.931015133857727 -0.08466523140668869
0.2668381333351135 3.049431562423706 -0.1336498111486435
0.25195786356925964 3.0316498279571533 -0.13282103836536407
0.14825411140918732 1.8833740949630737 -0.08248426020145416
0.14047932624816895 1.8899809122085571 -0.0827459767460823
0.1329285204410553 1.900542140007019 -0.08318217098712921
0.12966708838939667 1.9778659343719482 -0.08654087036848068
0.14604830741882324 2.3872580528259277 -0.10442481189966202
0.15449656546115875 2.7200207710266113 -0.11895007640123367
0.1392272412776947 2.6558196544647217 -0.11611481755971909
0.11454799771308899 2.3839759826660156 -0.10420672595500946
0.10288072377443314 2.355508327484131 -0.10294175893068314
0.09703589975833893 2.4687399864196777 -0.10787074267864227
0.09791374206542969 2.8026185035705566 -0.12243962287902832
0.0864778533577919 2.828982353210449 -0.12357372790575027
0.07680248469114304 2.9312007427215576 -0.1280229091644287
0.06649842113256454 3.045372247695923 -0.13299551606178284
0.053681157529354095 3.072603702545166 -0.13417324423789978
0.040287092328071594 3.073807716369629 -0.13421685993671417
0.012987600639462471 1.4855281114578247 -0.06486203521490097
0.006531944964081049 1.4915647506713867 -0.06512374430894852
2.377726741542574e-05 1.492578148841858 -0.0651673674583435
-0.006501795724034309 1.495561122894287 -0.06529822945594788
-0.013009889051318169 1.4935206174850464 -0.0652109906077385
-0.019461113959550858 1.488454818725586 -0.06499288976192474
-0.05410585552453995 3.102572202682495 -0.1354818195104599
-0.06762097030878067 3.1013078689575195 -0.1354382038116455
-0.08125675469636917 3.104978084564209 -0.13561268150806427
-0.0952003002166748 3.1175756454467773 -0.13617973029613495
-0.10956896096467972 3.1390960216522217 -0.13713935017585754
-0.07555059343576431 1.9236830472946167 -0.08405455946922302
-0.08416125178337097 1.9283255338668823 -0.08427266031503677
-0.09305345267057419 1.937919020652771 -0.08470885455608368
-0.1053762286901474 2.0113227367401123 -0.08793668448925018
-0.0 0.0 -0.0
-0.0 0.0 -0.0
-0.15677911043167114 2.3925845623016357 -0.10468653589487076
-0.16429084539413452 2.350019931793213 -0.10285451263189316
-0.17002777755260468 2.288506269454956 -0.10019373893737793
-0.1559525579214096 1.9819799661636353 -0.08680258691310883
-0.157816544175148 1.8996399641036987 -0.0832257941365242
-0.1651460826396942 1.8879854679107666 -0.0827459767460823
-0.17310813069343567 1.8842623233795166 -0.08261512219905853
-0.30550044775009155 3.1732914447784424 -0.1391894668340683
-0.3186429738998413 3.1649699211120605 -0.13888414204120636
-0.3322407603263855 3.161562204360962 -0.13879689574241638
-0.34592366218566895 3.1590895652770996 -0.138753280043602
-0.36004361510276794 3.1605279445648193 -0.13888414204120636
-0.3738304674625397 3.1589269638061523 -0.13888414204120636
-0.387488454580307 3.15627384185791 -0.13884051144123077
-0.40138256549835205 3.1555442810058594 -0.13888414204120636
-0.41462573409080505 3.1498007774353027 -0.1387096494436264
-0.427961140871048 3.144991874694824 -0.13857878744602203
-0.44195762276649475 3.145073413848877 -0.138666033744812
-0.45653629302978516 3.149047374725342 -0.13892775774002075
-0.47337284684181213 3.1677751541137695 -0.13984376192092896
-0.48825398087501526 3.1725914478302 -0.1401490867137909
-0.5016234517097473 3.1674704551696777 -0.14001823961734772
-0.5184901356697083 3.1839869022369385 -0.14084699749946594
-0.5371592044830322 3.2102694511413574 -0.14211197197437286
-0.5531914234161377 3.2197105884552 -0.14263540506362915
-0.5646327137947083 3.202507972717285 -0.1419811099767685
-0.566868782043457 3.135128974914551 -0.13910223543643951
-0.044054992496967316 0.2377219796180725 -0.010555892251431942
-0.04602346941828728 0.24243508279323578 -0.010773989371955395
-0.044793516397476196 0.23046360909938812 -0.010250556282699108
-0.04462934285402298 0.22438684105873108 -0.00998884066939354
-0.04680294916033745 0.23006394505500793 -0.010250556282699108
-0.048620063811540604 0.23377001285552979 -0.01042503397911787
-0.050470393151044846 0.2374645173549652 -0.010599511675536633
-0.051294080913066864 0.23626573383808136 -0.010555892251431942
-0.05102718248963356 0.23018746078014374 -0.010294175706803799
-0.05004683509469032 0.2211928516626358 -0.009901601821184158
-0.04943844676017761 0.21415825188159943 -0.009596265852451324
-0.050601374357938766 0.21491296589374542 -0.009639885276556015
-0.0515386201441288 0.21469011902809143 -0.009639885276556015
-0.05128766596317291 0.20961108803749084 -0.009421788156032562
-0.05341014638543129 0.2142322063446045 -0.009639885276556015
-0.05606570839881897 0.220775306224823 -0.009945221245288849
-0.056278105825185776 0.2176268845796585 -0.009814362041652203
-0.05773582309484482 0.21931150555610657 -0.009901601821184158
-0.06101919710636139 0.22774261236190796 -0.010294175706803799
-0.06253784894943237 0.22940193116664886 -0.01038141455501318
-0.0640721321105957 0.23105232417583466 -0.010468653403222561
-0.06480851024389267 0.2298090159893036 -0.01042503397911787
-0.06553524732589722 0.22856368124485016 -0.01038141455501318
-0.06709101051092148 0.2301938533782959 -0.010468653403222561
-0.06724359095096588 0.22702519595623016 -0.01033779513090849
-0.0685214251279831 0.22768627107143402 -0.01038141455501318
-0.06951422989368439 0.22738513350486755 -0.01038141455501318
-0.07020948082208633 0.2261255532503128 -0.01033779513090849
-0.0726974755525589 0.230581134557724 -0.010555892251431942
-0.073702871799469 0.23026174306869507 -0.010555892251431942
-0.0713111013174057 0.21948623657226562 -0.010076078586280346
-0.06882676482200623 0.20873618125915527 -0.009596265852451324
-0.07068784534931183 0.21127615869045258 -0.009727123193442822
-0.0735357329249382 0.21664193272590637 -0.00998884066939354
-0.07122788578271866 0.20687276124954224 -0.009552646428346634
-0.07147113233804703 0.2046736180782318 -0.009465407580137253
-0.07536475360393524 0.21283558011054993 -0.009857981465756893
-0.07966847717761993 0.2219075709581375 -0.010294175706803799
-0.08029428869485855 0.22061903774738312 -0.010250556282699108
-0.0819476917386055 0.22214120626449585 -0.01033779513090849
-0.08641474694013596 0.2311393916606903 -0.010773989371955395
-0.08671457320451736 0.22889162600040436 -0.010686749592423439
-0.08771246671676636 0.22851109504699707 -0.010686749592423439
-0.0 0.0 -0.0
-0.0 0.0 -0.0
-0.0 0.0 -0.0
-0.0 0.0 -0.0
-0.0 0.0 -0.0
-0.0 0.0 -0.0
-0.0 0.0 -0.0
-0.0 0.0 -0.0
-0.0 0.0 -0.0
-0.0 0.0 -0.0
-0.0 0.0 -0.0
-0.0 0.0 -0.0
-0.0 0.0 -0.0
-0.0 0.0 -0.0
-0.0 0.0 -0.0
-0.0 0.0 -0.0
-0.0 0.0 -0.0
-0.0 0.0 -0.0
-0.0 0.0 -0.0
-0.0 0.0 -0.0
-0.0 0.0 -0.0
-0.0 0.0 -0.0
-0.0 0.0 -0.0
-0.0 0.0 -0.0
-0.0 0.0 -0.0
-1.0974154472351074 2.108210802078247 -0.10377053171396255
-0.0 0.0 -0.0
-0.0 0.0 -0.0
-0.0 0.0 -0.0
-0.0 0.0 -0.0
-0.0 0.0 -0.0
-0.0 0.0 -0.0
-0.0 0.0 -0.0
-0.0 0.0 -0.0
-0.0 0.0 -0.0
-0.0 0.0 -0.0
-0.0 0.0 -0.0
-0.0 0.0 -0.0
-0.0 0.0 -0.0
-1.5132379531860352 2.5185585021972656 -0.12828463315963745
-1.5231761932373047 2.510223627090454 -0.12819738686084747
-0.0 0.0 -0.0
-0.0 0.0 -0.0
-0.0 0.0 -0.0
-1.0699129104614258 1.6957807540893555 -0.08754412084817886
-1.0799857378005981 1.6953091621398926 -0.08776220679283142
-1.0884534120559692 1.6922613382339478 -0.0878494530916214
-0.0 0.0 -0.0
-1.6164264678955078 2.4655628204345703 -0.12872081995010376
-1.6889252662658691 2.5517938137054443 -0.1336061954498291
-1.9042927026748657 2.8500936031341553 -0.14965812861919403
-1.9306765794754028 2.86246395111084 -0.150748610496521
-1.925155758857727 2.8275866508483887 -0.1493527889251709
-1.9861382246017456 2.889968156814575 -0.1531040519475937
-2.0961029529571533 3.021644115447998 -0.16056297719478607
-2.1522436141967773 3.0738484859466553 -0.16383442282676697
-2.165635108947754 3.0644283294677734 -0.16383442282676697
-2.1592609882354736 3.0272958278656006 -0.16235136985778809
-0.0 0.0 -0.0
-1.1386005878448486 1.5672130584716797 -0.0845780000090599
-1.1336133480072021 1.5461163520812988 -0.0837056115269661
-1.1522334814071655 1.5572174787521362 -0.0845780000090599
-1.5045106410980225 2.0148656368255615 -0.10979000478982925
-1.527717113494873 2.0274312496185303 -0.11083687096834183
-0.0 0.0 -0.0
-1.8305814266204834 2.385756731033325 -0.1312943696975708
-1.8336342573165894 2.368267059326172 -0.13077092170715332
-1.701256275177002 2.1775965690612793 -0.12065122276544571
-1.5697259902954102 1.9912681579589844 -0.11070600897073746
-1.5728023052215576 1.977363109588623 -0.11031343042850494
-0.0 0.0 -0.0
-2.2985496520996094 2.8385868072509766 -0.1594724804162979
-0.0 0.0 -0.0
-1.9095501899719238 2.3165626525878906 -0.13107626140117645
-0.0 0.0 -0.0
-2.343886613845825 2.793447494506836 -0.15921077132225037
-2.332169771194458 2.7549805641174316 -0.15759685635566711
-0.17193594574928284 0.20131921768188477 -0.01155913807451725
-0.19628918170928955 0.2278139442205429 -0.013129436410963535
-0.21497765183448792 0.24731341004371643 -0.014307158999145031
-0.22132433950901031 0.25238215923309326 -0.01465611532330513
-0.2277192324399948 0.2574000954627991 -0.01500506978482008
-0.22950541973114014 0.25714942812919617 -0.015048690140247345
-0.2306252419948578 0.25614556670188904 -0.015048690140247345
-0.2324123978614807 0.255876362323761 -0.015092308633029461
-0.23285171389579773 0.2541232705116272 -0.015048690140247345
-0.23328016698360443 0.2523711919784546 -0.01500506978482008
-0.2336977869272232 0.2506202757358551 -0.01496145036071539
-0.23410455882549286 0.24887049198150635 -0.014917830936610699
-0.2338128536939621 0.24639727175235748 -0.014830592088401318
-0.23488573729991913 0.24537472426891327 -0.014830592088401318
-0.2359541356563568 0.24434751272201538 -0.014830592088401318
-0.2349267154932022 0.2411687672138214 -0.014699733816087246
-0.23527655005455017 0.23942884802818298 -0.01465611532330513
-0.23631900548934937 0.23839998245239258 -0.01465611532330513
-0.23806338012218475 0.23807302117347717 -0.014699733816087246
-0.23980939388275146 0.23773539066314697 -0.014743354171514511
-0.23941931128501892 0.23528625071048737 -0.01465611532330513
-0.23829680681228638 0.23214790225028992 -0.014525256119668484
-0.23643290996551514 0.22832991182804108 -0.014350779354572296
-0.23598361015319824 0.2259143739938736 -0.014263540506362915
-0.236242413520813 0.22419483959674835 -0.01421992015093565
-0.23940138518810272 0.22521555423736572 -0.014350779354572296
-0.2418430745601654 0.22553156316280365 -0.014438018202781677
-0.24135760962963104 0.223117858171463 -0.014350779354572296
-0.24232883751392365 0.2220626175403595 -0.014350779354572296
-0.219708651304245 -0.2013258934020996 0.0
-0.211484894156456 -0.1954946219921112 0.0
-0.2106298953294754 -0.19641552865505219 0.0
-0.20831412076950073 -0.1959623247385025 0.0
-0.2023794800043106 -0.19205091893672943 0.0
-0.20370666682720184 -0.19500665366649628 0.0
-0.20213451981544495 -0.19519898295402527 0.0
-0.20342978835105896 -0.198172464966774 0.0
-0.19614391028881073 -0.1927500069141388 0.0
-0.19032973051071167 -0.1886759102344513 0.0
-0.19162599742412567 -0.1916259080171585 0.0
-0.1921960711479187 -0.19388055801391602 0.0
-0.1892455667257309 -0.1925775706768036 0.0
-0.18212337791919708 -0.18695475161075592 0.0
-0.17713797092437744 -0.18343161046504974 0.0
-0.17287832498550415 -0.1805909276008606 0.0
-0.1686469465494156 -0.17771665751934052 0.0
-0.1671847403049469 -0.17772245407104492 0.0
-0.16640768945217133 -0.17845024168491364 0.0
-0.16426987946033478 -0.17770597338676453 0.0
-0.16416852176189423 -0.17915832996368408 0.0
-0.16271287202835083 -0.17913271486759186 0.0
-0.16059145331382751 -0.1783546805381775 0.0
-0.15914581716060638 -0.17830762267112732 0.0
-0.1577036827802658 -0.17825137078762054 0.0
-0.15626507997512817 -0.17818595468997955 0.0
-0.15876640379428864 -0.18263962864875793 0.0
-0.15927352011203766 -0.18484576046466827 0.0
-0.15781600773334503 -0.18477855622768402 0.0
-0.15700827538967133 -0.18546539545059204 0.0
-0.15298359096050262 -0.18231846392154694 0.0
-0.15282607078552246 -0.1837530881166458 0.0
-0.15265892446041107 -0.18518978357315063 0.0
-0.15058402717113495 -0.1843053251504898 0.0
-0.1510370522737503 -0.18651491403579712 0.0
-0.15084773302078247 -0.18795204162597656 0.0
-0.14940369129180908 -0.18782582879066467 0.0
-0.14610634744167328 -0.1853346824645996 0.0
-0.14714327454566956 -0.18833443522453308 0.0
-0.14754454791545868 -0.19055604934692383 0.0
-0.14549417793750763 -0.1896113157272339 0.0
-0.14466546475887299 -0.19024433195590973 0.0
-0.14323218166828156 -0.1900751143693924 0.0
-0.14419643580913544 -0.19310203194618225 0.0
-0.1451369822025299 -0.19614093005657196 0.0
-0.14546239376068115 -0.19838522374629974 0.0
-0.14812211692333221 -0.20387211441993713 0.0
-0.14314140379428864 -0.19883546233177185 0.0
-0.1382075399160385 -0.19375933706760406 0.0
-0.13736079633235931 -0.19436052441596985 0.0
-0.13249638676643372 -0.18922396004199982 0.0
-0.1288195103406906 -0.18569205701351166 0.0
-0.12800805270671844 -0.18625237047672272 0.0
-0.12888258695602417 -0.1892888993024826 0.0
-0.1286146193742752 -0.19067847728729248 0.0
-0.12889255583286285 -0.19290077686309814 0.0
-0.12749771773815155 -0.1926274597644806 0.0
-0.12884919345378876 -0.19652707874774933 0.0
-0.13234758377075195 -0.20379677414894104 0.0
-0.12658831477165222 -0.19680295884609222 0.0
-0.12250460684299469 -0.19229307770729065 0.0
-0.12486609816551208 -0.19790013134479523 0.0
-0.12665101885795593 -0.20268331468105316 0.0
-0.1262916624546051 -0.2040843516588211 0.0
-0.12539997696876526 -0.2046334445476532 0.0
-0.12346836179494858 -0.20346882939338684 0.0
-0.12000419944524765 -0.19971980154514313 0.0
-0.11862032860517502 -0.19938209652900696 0.0
-0.11774923652410507 -0.19989778101444244 0.0
-0.11435703188180923 -0.1960904747247696 0.0
-0.11700035631656647 -0.20264975726604462 0.0
-0.12107720971107483 -0.21184031665325165 0.0
-0.12015173584222794 -0.21236659586429596 0.0
-0.11775810271501541 -0.21027132868766785 0.0
-0.11247620731592178 -0.20291157066822052 0.0
-0.11447571218013763 -0.2086607664823532 0.0
-0.11881294846534729 -0.21882525086402893 0.0
-0.11217716336250305 -0.20877090096473694 0.0
-0.10891780257225037 -0.2048436403274536 0.0
-0.10848858952522278 -0.20620191097259521 0.0
-0.10851134359836578 -0.20844733715057373 0.0
-0.1108059212565422 -0.21514193713665009 0.0
-0.1089581549167633 -0.21384134888648987 0.0
-0.10802406817674637 -0.21431472897529602 0.0
-0.10798032581806183 -0.21657390892505646 0.0
-0.10614974051713943 -0.21524924039840698 0.0
-0.10477116703987122 -0.2148115634918213 0.0
-0.1020950973033905 -0.2116638869047165 0.0
-0.10160108655691147 -0.21300992369651794 0.0
-0.10237697511911392 -0.21706901490688324 0.0
-0.0984705314040184 -0.2111695110797882 0.0
-0.09629221260547638 -0.2088727205991745 0.0
-0.09703870862722397 -0.21293072402477264 0.0
-0.09693014621734619 -0.21517562866210938 0.0
