# .PCD v0.7 - Point Cloud Data file format
VERSION 0.7
FIELDS x y z
SIZE 4 4 4
TYPE F F F
COUNT 1 1 1
WIDTH 902
HEIGHT 1
VIEWPOINT 0 0 0 1 0 0 0
POINTS 902
DATA ascii
2.034963846206665 -1.4515565633773804 -0.1091357097029686
2.0486207008361816 -1.4478530883789062 -0.10952828824520111
2.030367612838745 -1.421709418296814 -0.1082197055220604
1.9815539121627808 -1.3746826648712158 -0.10529720038175583
1.9710664749145508 -1.354706048965454 -0.10442481189966202
1.9868683815002441 -1.3528401851654053 -0.1049482524394989
2.0026912689208984 -1.3508621454238892 -0.10547168552875519
2.0168731212615967 -1.3476613759994507 -0.1059078797698021
2.032731294631958 -1.3454654216766357 -0.10643130540847778
2.0477728843688965 -1.34260892868042 -0.10691112279891968
2.0561251640319824 -1.3352935314178467 -0.10704198479652405
2.071174383163452 -1.332254409790039 -0.10752179473638535
2.108985662460327 -1.3436027765274048 -0.10917932540178299
2.147779941558838 -1.3551794290542603 -0.11088048666715622
2.1579086780548096 -1.3484423160552979 -0.11109858751296997
2.1620726585388184 -1.3379623889923096 -0.11101134121417999
2.163630962371826 -1.3259059190750122 -0.11079324781894684
2.1651251316070557 -1.3138612508773804 -0.11057514697313309
2.1776881217956543 -1.3085182905197144 -0.11092410981655121
2.1945383548736572 -1.3056445121765137 -0.11149116605520248
2.2157089710235596 -1.3051838874816895 -0.11227630823850632
3.451169013977051 -2.0127112865448 -0.17443393170833588
3.457322835922241 -1.9961352348327637 -0.1743030846118927
3.4451828002929688 -1.9691327810287476 -0.17325620353221893
3.4363515377044678 -1.9442424774169922 -0.17238382995128632
3.4369571208953857 -1.9248367547988892 -0.1719912439584732
3.4330897331237793 -1.903040885925293 -0.17138057947158813
3.4396090507507324 -1.8870822191238403 -0.17129334807395935
3.445176362991333 -1.8706259727478027 -0.17116248607635498
3.4339444637298584 -1.8451725244522095 -0.1702028512954712
3.426967144012451 -1.8221980333328247 -0.16946132481098175
3.42604398727417 -1.802575945854187 -0.16902513802051544
3.4214704036712646 -1.7811514139175415 -0.16841445863246918
3.425656795501709 -1.7643756866455078 -0.16823998093605042
3.4386637210845947 -1.7521330118179321 -0.16850170493125916
3.4400312900543213 -1.7339646816253662 -0.16819636523723602
3.4466702938079834 -1.7184925079345703 -0.16815274953842163
3.4505515098571777 -1.7016695737838745 -0.16797825694084167
3.45345401763916 -1.6844078302383423 -0.16776016354560852
3.4625706672668457 -1.6701914072036743 -0.1678474098443985
3.462611198425293 -1.6516262292861938 -0.16749845445156097
3.45713472366333 -1.6305357217788696 -0.1668877899646759
3.4624054431915283 -1.614591121673584 -0.16680054366588593
3.4730465412139893 -1.6011412143707275 -0.1669750213623047
3.471817970275879 -1.5822433233261108 -0.16658245027065277
3.4659359455108643 -1.5613347291946411 -0.1659717708826065
3.469064950942993 -1.5445715188980103 -0.16579729318618774
3.4629693031311035 -1.523787021636963 -0.16518662869930267
3.4466805458068848 -1.4987030029296875 -0.16409613192081451
3.4467616081237793 -1.480889081954956 -0.16379080712795258
3.4660654067993164 -1.4713009595870972 -0.16440148651599884
3.4973275661468506 -1.466594934463501 -0.1655791997909546
3.512000322341919 -1.4547618627548218 -0.1659717708826065
3.5044448375701904 -1.4337496757507324 -0.16531749069690704
3.493067741394043 -1.4113340377807617 -0.16448871791362762
3.4871294498443604 -1.3912664651870728 -0.16392166912555695
3.4838716983795166 -1.3723762035369873 -0.16348546743392944
3.4814465045928955 -1.3539029359817505 -0.16309289634227753
3.488253593444824 -1.3390575647354126 -0.16313651204109192
3.499668598175049 -1.3259482383728027 -0.16339823603630066
3.5016775131225586 -1.3092658519744873 -0.1632237434387207
3.4923603534698486 -1.2884416580200195 -0.16252583265304565
3.4819893836975098 -1.267382264137268 -0.1617843061685562
3.4809043407440186 -1.2498139142990112 -0.16147898137569427
3.4750237464904785 -1.2306116819381714 -0.1609555333852768
3.4718713760375977 -1.212472915649414 -0.16056297719478607
3.4686272144317627 -1.194385051727295 -0.16017039120197296
3.4586691856384277 -1.174100637435913 -0.1594724804162979
3.4552323818206787 -1.1561450958251953 -0.159079909324646
3.45170521736145 -1.1382420063018799 -0.15868733823299408
3.4461872577667236 -1.1197742223739624 -0.15820752084255219
3.442476987838745 -1.1019855737686157 -0.15781494975090027
3.4367716312408447 -1.0836496353149414 -0.15733513236045837
3.4424214363098145 -1.0689399242401123 -0.15737876296043396
3.4546959400177 -1.056246280670166 -0.1577277034521103
3.4554450511932373 -1.0400105714797974 -0.15755324065685272
3.453244924545288 -1.0229371786117554 -0.1572479009628296
3.4480841159820557 -1.0050641298294067 -0.15681171417236328
3.4399521350860596 -0.9864294528961182 -0.1562446504831314
3.439415693283081 -0.9700545072555542 -0.15602655708789825
3.451317548751831 -0.9571740031242371 -0.15637551248073578
3.4660634994506836 -0.9449963569641113 -0.15685532987117767
3.4662938117980957 -0.928829550743103 -0.1566808521747589
3.4867377281188965 -0.9180204272270203 -0.15742237865924835
3.5371365547180176 -0.9148051738739014 -0.1595160961151123
3.5527143478393555 -0.9023140072822571 -0.16003954410552979
3.560494899749756 -0.8877705931663513 -0.16021400690078735
3.5488080978393555 -0.8684270977973938 -0.1595160961151123
3.495248794555664 -0.8391735553741455 -0.15694256126880646
3.4599785804748535 -0.8147549033164978 -0.15519778430461884
3.450845956802368 -0.7967284917831421 -0.15463073551654816
3.4464943408966064 -0.7798998355865479 -0.15428178012371063
3.4430370330810547 -0.7633405327796936 -0.1539764404296875
3.4385244846343994 -0.7466143369674683 -0.15362748503684998
3.434908866882324 -0.7301498055458069 -0.15332214534282684
3.430237293243408 -0.7135276198387146 -0.1529732048511505
3.4235281944274902 -0.6965617537498474 -0.152537003159523
3.4196760654449463 -0.6802527904510498 -0.15223167836666107
3.41280460357666 -0.6634188294410706 -0.15179547667503357
3.411740779876709 -0.6477758884429932 -0.1516209989786148
3.4086408615112305 -0.631790816783905 -0.15135928988456726
3.3946523666381836 -0.6138895153999329 -0.15061774849891663
3.381556749343872 -0.5962958335876465 -0.14991983771324158
3.3792030811309814 -0.5806893706321716 -0.14970174431800842
3.382689952850342 -0.5661041736602783 -0.14974536001682281
0.0 -0.0 -0.0
0.0 -0.0 -0.0
0.0 -0.0 -0.0
0.0 -0.0 -0.0
3.3922572135925293 -0.49188968539237976 -0.14965812861919403
3.3874459266662598 -0.47611016035079956 -0.1493527889251709
3.373652458190918 -0.4591694176197052 -0.14865487813949585
3.36769962310791 -0.44340142607688904 -0.14830592274665833
3.3755486011505127 -0.4294593930244446 -0.14856763184070587
3.3823485374450684 -0.41533559560775757 -0.14878574013710022
3.3821442127227783 -0.4003385305404663 -0.14869849383831024
3.3779029846191406 -0.38489875197410583 -0.1484367847442627
3.3765709400177 -0.369829922914505 -0.14830592274665833
3.3771591186523438 -0.3549889624118805 -0.14826230704784393
3.3776819705963135 -0.3401499092578888 -0.14821869134902954
3.3741614818573 -0.32492998242378235 -0.1480005830526352
3.361619234085083 -0.30892443656921387 -0.14738991856575012
3.3579587936401367 -0.29381829500198364 -0.14717181026935577
3.354231119155884 -0.2787500023841858 -0.14695371687412262
3.342467784881592 -0.26309269666671753 -0.14638666808605194
3.3176801204681396 -0.24658070504665375 -0.14525257050991058
3.284839391708374 -0.229732483625412 -0.1437695026397705
3.2748444080352783 -0.21467866003513336 -0.1432896852493286
3.2747528553009033 -0.20032645761966705 -0.14324606955051422
3.2765932083129883 -0.18609243631362915 -0.1432896852493286
3.287350654602051 -0.17231683433055878 -0.14372588694095612
3.302042007446289 -0.15864266455173492 -0.14433656632900238
3.3017046451568604 -0.1441897302865982 -0.1442929357290268
3.302302360534668 -0.12978199124336243 -0.1442929357290268
3.319810628890991 -0.11596469581127167 -0.14503446221351624
3.3202850818634033 -0.10147823393344879 -0.14503446221351624
3.305715560913086 -0.08659739792346954 -0.14438018202781677
3.2950751781463623 -0.07193286716938019 -0.14390036463737488
3.284369707107544 -0.05736284330487251 -0.14342054724693298
3.2686054706573486 -0.042822178453207016 -0.14272263646125793
3.2567732334136963 -0.0284550953656435 -0.14219921827316284
3.251871109008789 -0.01422266848385334 -0.1419811099767685
3.247905969619751 -3.357278910698369e-05 -0.14180663228034973
3.242879867553711 0.014116301201283932 -0.14158853888511658
3.253776788711548 0.028361642733216286 -0.14206835627555847
3.3265461921691895 0.043512482196092606 -0.14525257050991058
3.5141170024871826 0.061302803456783295 -0.1534530073404312
3.5128173828125 0.07661361247301102 -0.15340939164161682
3.479492425918579 0.09107771515846252 -0.15196995437145233
3.3292744159698486 0.1016840785741806 -0.14542703330516815
3.240936279296875 0.11314244568347931 -0.14158853888511658
3.214456796646118 0.1262630671262741 -0.14045444130897522
3.199901819229126 0.13967759907245636 -0.13984376192092896
3.194272518157959 0.15339882671833038 -0.1396256685256958
3.2055447101593018 0.16796226799488068 -0.1401490867137909
3.2077736854553223 0.18211734294891357 -0.14027994871139526
3.2029597759246826 0.19586820900440216 -0.1401054710149765
3.204068660736084 0.20997250080108643 -0.14019271731376648
3.204118490219116 0.22402051091194153 -0.14023633301258087
3.199125289916992 0.23770283162593842 -0.1400618553161621
3.189094066619873 0.2509539723396301 -0.1396692842245102
3.1859772205352783 0.26470112800598145 -0.13958203792572021
3.1867825984954834 0.2787741422653198 -0.1396692842245102
3.182551383972168 0.2924021780490875 -0.13953842222690582
3.1683170795440674 0.3050411343574524 -0.13897137343883514
3.1560218334198 0.31776168942451477 -0.13849155604839325
3.152617931365967 0.33132049441337585 -0.13840432465076447
3.1590874195098877 0.3459432125091553 -0.138753280043602
3.1525845527648926 0.35915857553482056 -0.13853517174720764
3.141066312789917 0.37173667550086975 -0.13809898495674133
3.129498243331909 0.3842211663722992 -0.13766279816627502
3.1218457221984863 0.3971160650253296 -0.13740107417106628
3.1220643520355225 0.41099467873573303 -0.13748832046985626
3.1172714233398438 0.4242091774940491 -0.1373574584722519
3.1084656715393066 0.43683356046676636 -0.13705211877822876
3.100597620010376 0.44953253865242004 -0.1367904096841812
3.096630573272705 0.4627618193626404 -0.13670316338539124
3.090632200241089 0.47566112875938416 -0.13652868568897247
3.085566997528076 0.4886731505393982 -0.1363978236913681
3.0873496532440186 0.5027741193771362 -0.13657230138778687
3.092024087905884 0.5173946022987366 -0.13687764108181
3.0917062759399414 0.531219482421875 -0.13696487247943878
3.0785365104675293 0.5427963137626648 -0.13648506999015808
3.057459592819214 0.5528462529182434 -0.13565629720687866
3.048142194747925 0.5649073123931885 -0.13535095751285553
3.053500175476074 0.5796926021575928 -0.13569991290569305
3.052903175354004 0.5933917164802551 -0.13578715920448303
3.046365737915039 0.6059272885322571 -0.13561268150806427
3.0407557487487793 0.6186162233352661 -0.1354818195104599
3.035093307495117 0.631267786026001 -0.13535095751285553
3.016674518585205 0.6411815881729126 -0.13465304672718048
3.0109190940856934 0.6537023186683655 -0.1345221996307373
3.019742727279663 0.6694283485412598 -0.1350456327199936
3.020690679550171 0.6834799647331238 -0.13522011041641235
3.0167062282562256 0.6964290142059326 -0.13517649471759796
3.006831645965576 0.7079824209213257 -0.13487115502357483
3.002742290496826 0.7208621501922607 -0.13482752442359924
3.001509189605713 0.7344321012496948 -0.13491477072238922
2.992460012435913 0.7460715770721436 -0.13465304672718048
2.978524684906006 0.7564165592193604 -0.13417324423789978
2.9732613563537598 0.7689052224159241 -0.1340859979391098
2.970844268798828 0.7821255326271057 -0.1341296136379242
2.9664382934570312 0.7948222756385803 -0.1340859979391098
2.955231189727783 0.8056560754776001 -0.13373704254627228
2.9391720294952393 0.8150722980499268 -0.1331699937582016
2.9250106811523438 0.8249061107635498 -0.1326901763677597
2.915621519088745 0.8360088467597961 -0.13242846727371216
2.908109426498413 0.8476043939590454 -0.1322539895772934
2.8995938301086426 0.8588666915893555 -0.13203589618206024
2.8900787830352783 0.8697828650474548 -0.1317741721868515
2.890077590942383 0.8835532665252686 -0.13194864988327026
2.8900113105773926 0.8973401188850403 -0.13212312757968903
2.8841629028320312 0.9093408584594727 -0.13203589618206024
2.8744587898254395 0.9200893044471741 -0.1317741721868515
2.8561644554138184 0.9279919862747192 -0.13111987709999084
2.8511393070220947 0.9401326775550842 -0.13107626140117645
2.853641986846924 0.9547830820083618 -0.13138160109519958
2.8541791439056396 0.9688310027122498 -0.13159969449043274
2.8574814796447754 0.9838773608207703 -0.13194864988327026
2.8654227256774902 1.0006178617477417 -0.13251569867134094
2.8534955978393555 1.0104433298110962 -0.1321667581796646
2.8274331092834473 1.0151199102401733 -0.13116350769996643
2.802323341369629 1.019930124282837 -0.13020387291908264
2.7837867736816406 1.0269612073898315 -0.12954957783222198
2.7746005058288574 1.0373486280441284 -0.12933148443698883
2.765376329421997 1.0476754903793335 -0.12911339104175568
2.7514517307281494 1.0561515092849731 -0.12867718935012817
2.74495530128479 1.067422866821289 -0.1285899579524994
2.74027156829834 1.0793898105621338 -0.1285899579524994
2.737391471862793 1.0920765399932861 -0.12867718935012817
2.7363057136535645 1.105507254600525 -0.12885168194770813
2.7333052158355713 1.1181925535202026 -0.12893891334533691
2.729323387145996 1.1304905414581299 -0.1289825439453125
2.72067928314209 1.1408432722091675 -0.12880805134773254
2.7110774517059326 1.1507519483566284 -0.1285899579524994
2.7014408111572266 1.1605983972549438 -0.12837186455726624
2.6963510513305664 1.1723746061325073 -0.12837186455726624
2.6966965198516846 1.1865426301956177 -0.12863357365131378
2.688755512237549 1.197078824043274 -0.1285027116537094
2.681685209274292 1.2079787254333496 -0.12841548025608063
2.6709342002868652 1.2171825170516968 -0.12815377116203308
2.6610610485076904 1.226733684539795 -0.12793566286563873
2.6466286182403564 1.234110951423645 -0.12749947607517242
2.6348934173583984 1.2426642179489136 -0.1271941363811493
2.6393651962280273 1.2588802576065063 -0.1276739537715912
2.6464455127716064 1.276461124420166 -0.12828463315963745
2.6435444355010986 1.289310097694397 -0.12841548025608063
2.6369974613189697 1.3003904819488525 -0.12837186455726624
2.6259336471557617 1.3092094659805298 -0.1281101405620575
2.6157355308532715 1.318406581878662 -0.12789204716682434
2.6161892414093018 1.3329821825027466 -0.12819738686084747
2.6156773567199707 1.3471293449401855 -0.12845909595489502
2.609774351119995 1.3585295677185059 -0.12845909595489502
2.5994009971618652 1.3675780296325684 -0.12824100255966187
2.5942914485931396 1.3793760538101196 -0.12828463315963745
2.5882480144500732 1.3906826972961426 -0.12828463315963745
2.5716192722320557 1.3962422609329224 -0.12776118516921997
2.5523641109466553 1.4002418518066406 -0.12710689008235931
2.5392398834228516 1.407490611076355 -0.12675794959068298
2.5278444290161133 1.4156277179718018 -0.12649622559547424
2.522512912750244 1.4271358251571655 -0.12653984129428864
2.5214662551879883 1.4411031007766724 -0.12680156528949738
2.5168848037719727 1.4530904293060303 -0.12688879668712616
2.5174245834350586 1.468084692955017 -0.12723775207996368
2.5204641819000244 1.4846324920654297 -0.12771756947040558
2.5173966884613037 1.4976590871810913 -0.12789204716682434
2.5116941928863525 1.509143352508545 -0.12793566286563873
2.4991068840026855 1.5164604187011719 -0.1276303380727768
2.483096122741699 1.5216084718704224 -0.1271505206823349
2.4662387371063232 1.5261199474334717 -0.1266270875930786
2.4510838985443115 1.5315722227096558 -0.1261908859014511
2.4486026763916016 1.5449179410934448 -0.12640899419784546
2.4468936920166016 1.5588077306747437 -0.126670703291893
2.4358677864074707 1.5667672157287598 -0.12645260989665985
2.4281704425811768 1.5768367052078247 -0.12640899419784546
2.4237735271453857 1.589059591293335 -0.12653984129428864
2.418483257293701 1.6007229089736938 -0.1266270875930786
2.407322406768799 1.6084851026535034 -0.12640899419784546
2.3986246585845947 1.6178562641143799 -0.12632174789905548
2.390717029571533 1.6277445554733276 -0.1262781322002411
2.389355182647705 1.642121434211731 -0.12658347189426422
2.387913465499878 1.6565173864364624 -0.12688879668712616
2.392120122909546 1.674942970275879 -0.12749947607517242
2.4019227027893066 1.6974730491638184 -0.12841548025608063
2.3953065872192383 1.70851731300354 -0.12845909595489502
2.3699910640716553 1.706111192703247 -0.12749947607517242
2.345551013946533 1.7041044235229492 -0.12658347189426422
2.3348705768585205 1.7119596004486084 -0.12640899419784546
2.3305909633636475 1.7245079278945923 -0.12658347189426422
2.3246450424194336 1.7358559370040894 -0.126670703291893
2.3186447620391846 1.7471851110458374 -0.12675794959068298
2.3078181743621826 1.7548664808273315 -0.12658347189426422
2.292213201522827 1.7588378190994263 -0.12614727020263672
2.281357526779175 1.7663761377334595 -0.12597280740737915
2.2736284732818604 1.7763135433197021 -0.12597280740737915
2.267425298690796 1.7874540090560913 -0.12606003880500793
2.2510039806365967 1.7904894351959229 -0.12558022141456604
2.233041286468506 1.7921650409698486 -0.12501317262649536
2.2143306732177734 1.7930893898010254 -0.1244025006890297
2.1747653484344482 1.776818037033081 -0.12261410057544708
2.14540696144104 1.768497347831726 -0.12139276415109634
2.140742540359497 1.780396819114685 -0.1215672418475151
2.1536176204681396 1.8070591688156128 -0.12274496257305145
2.175450325012207 1.8416132926940918 -0.12444611638784409
2.179549217224121 1.861469030380249 -0.12514403462409973
2.170649290084839 1.8703089952468872 -0.12510040402412415
2.1602060794830322 1.8777962923049927 -0.12496955692768097
2.15950345993042 1.8937910795211792 -0.12540574371814728
2.163939952850342 1.9144492149353027 -0.12614727020263672
2.1630196571350098 1.9305251836776733 -0.12658347189426422
2.176848888397217 1.9599992036819458 -0.12789204716682434
2.170494794845581 1.9714939594268799 -0.1280229091644287
2.1346182823181152 1.9559730291366577 -0.12640899419784546
2.1121246814727783 1.9523835182189941 -0.12558022141456604
2.0999321937561035 1.9581739902496338 -0.12536212801933289
2.0899128913879395 1.9659490585327148 -0.1252748817205429
2.081315040588379 1.9750491380691528 -0.1252748817205429
2.0726776123046875 1.9841117858886719 -0.1252748817205429
2.062563180923462 1.9917484521865845 -0.12518765032291412
1.940068244934082 1.8898874521255493 -0.11825216561555862
1.767197608947754 1.7365802526474 -0.1081760823726654
1.7305134534835815 1.715437889099121 -0.10638768970966339
1.7823529243469238 1.7823117971420288 -0.1100517138838768
1.9897855520248413 2.0071794986724854 -0.12339925765991211
2.0230236053466797 2.058595895767212 -0.12601642310619354
2.015416145324707 2.0688345432281494 -0.12610365450382233
2.0042881965637207 2.0754528045654297 -0.12597280740737915
1.998667597770691 2.0877866744995117 -0.1261908859014511
1.9971036911010742 2.104459047317505 -0.126670703291893
1.9831105470657349 2.1080591678619385 -0.12636536359786987
1.9548157453536987 2.09623384475708 -0.12514403462409973
1.9341219663619995 2.0922720432281494 -0.1244025006890297
1.9229495525360107 2.0984814167022705 -0.12427164614200592
1.9131031036376953 2.106112241744995 -0.12422801554203033
1.902558445930481 2.11295485496521 -0.12414078414440155
1.88666832447052 2.1137828826904297 -0.12370458990335464
1.8694833517074585 2.11301589012146 -0.12318115681409836
1.8576109409332275 2.1181483268737793 -0.1230066791176796
1.8431073427200317 2.120201349258423 -0.12265771627426147
1.831882357597351 2.12595272064209 -0.1225268617272377
1.8225888013839722 2.133925437927246 -0.1225268617272377
1.814551591873169 2.1433827877044678 -0.12261410057544708
1.8083932399749756 2.155106544494629 -0.12283220142126083
1.8040833473205566 2.169121265411377 -0.12318115681409836
1.7926952838897705 2.1746597290039062 -0.12305029481649399
1.77117919921875 2.1677615642547607 -0.12222152203321457
1.7573027610778809 2.170034170150757 -0.12191618978977203
1.7471922636032104 2.1769020557403564 -0.12187257409095764
1.711556077003479 2.1516671180725098 -0.12004055827856064
1.6730812788009644 2.1222403049468994 -0.11799044907093048
1.6650354862213135 2.131094455718994 -0.11807768046855927
1.2648804187774658 1.633574366569519 -0.09020489454269409
1.2784191370010376 1.6660258769989014 -0.09168794751167297
1.2681140899658203 1.667612075805664 -0.09146986156702042
0.0 0.0 -0.0
1.6874908208847046 2.259766101837158 -0.12313754111528397
1.6883114576339722 2.2815630435943604 -0.1239226832985878
1.6753865480422974 2.284879684448242 -0.12370458990335464
1.6601159572601318 2.284893751144409 -0.12331201136112213
1.6489629745483398 2.290493965148926 -0.12322477251291275
1.6372127532958984 2.29522705078125 -0.12309391051530838
1.6237229108810425 2.2974538803100586 -0.12283220142126083
1.6131099462509155 2.3036983013153076 -0.12278857827186584
1.6053208112716675 2.3139984607696533 -0.1229630634188652
1.5980381965637207 2.3250973224639893 -0.12318115681409836
1.5923761129379272 2.3386542797088623 -0.12353010475635529
1.5916541814804077 2.3596601486206055 -0.12427164614200592
1.5913341045379639 2.3815345764160156 -0.12505678832530975
1.5869932174682617 2.3976190090179443 -0.12553659081459045
1.5737777948379517 2.400343418121338 -0.1253184974193573
1.5464214086532593 2.381213903427124 -0.12396630644798279
1.4500818252563477 2.2543416023254395 -0.11703082174062729
1.3559540510177612 2.128361940383911 -0.11018257588148117
1.3301279544830322 2.1080658435821533 -0.10883037745952606
1.3415647745132446 2.1468915939331055 -0.1105315312743187
1.430495023727417 2.3115880489349365 -0.11868835985660553
1.4705084562301636 2.399582624435425 -0.12287581712007523
1.4693535566329956 2.42134952545166 -0.12366096675395966
1.4525998830795288 2.41746187210083 -0.12313754111528397
1.3603070974349976 2.2864036560058594 -0.11615843325853348
1.236228108406067 2.0986368656158447 -0.106344074010849
1.2008874416351318 2.0591344833374023 -0.10407586395740509
1.2133713960647583 2.101557970046997 -0.10595149546861649
1.332590937614441 2.3314802646636963 -0.11724892258644104
1.388820767402649 2.454657793045044 -0.12313754111528397
1.3839551210403442 2.471153974533081 -0.12366096675395966
1.3537851572036743 2.4422178268432617 -0.12191618978977203
0.8774705529212952 1.5993679761886597 -0.07964900135993958
0.8671466708183289 1.5970356464385986 -0.07934366911649704
0.8611158728599548 1.6025640964508057 -0.07943090796470642
0.8541152477264404 1.6063060760498047 -0.07943090796470642
0.8466331362724304 1.6091333627700806 -0.07938728481531143
1.3055380582809448 2.5078344345092773 -0.1234428733587265
1.2863490581512451 2.4975197315216064 -0.12265771627426147
1.26636803150177 2.4853057861328125 -0.12178532779216766
1.2546125650405884 2.489023447036743 -0.12169809639453888
1.2508728504180908 2.508779287338257 -0.12239600718021393
1.2491940259933472 2.533029556274414 -0.12331201136112213
1.2442612648010254 2.5510270595550537 -0.1239226832985878
1.2357227802276611 2.561830997467041 -0.12418439984321594
1.2279739379882812 2.5744118690490723 -0.12453334778547287
1.2167292833328247 2.5797455310821533 -0.12453334778547287
1.2063060998916626 2.586840867996216 -0.12462059408426285
1.196262240409851 2.594801425933838 -0.12475144863128662
1.1352118253707886 2.49090576171875 -0.11951713263988495
0.9499378204345703 2.1087074279785156 -0.10097888112068176
0.9143142700195312 2.0535085201263428 -0.09814362227916718
0.9154049158096313 2.0803394317626953 -0.09923411160707474
1.0338013172149658 2.3774919509887695 -0.11319231241941452
1.144492745399475 2.663778781890869 -0.12658347189426422
1.1430087089538574 2.692657470703125 -0.12771756947040558
1.1134766340255737 2.655238628387451 -0.1257110834121704
0.6430822014808655 1.5524775981903076 -0.07336781173944473
0.6340324282646179 1.5497208833694458 -0.07310609519481659
0.6261417269706726 1.5496937036514282 -0.07297524064779282
0.6264081001281738 1.5700414180755615 -0.07380400598049164
0.6312689185142517 1.6025046110153198 -0.07519982755184174
1.0461242198944092 2.6899936199188232 -0.12601642310619354
1.0379574298858643 2.703859567642212 -0.12645260989665985
1.0268577337265015 2.710231065750122 -0.12653984129428864
1.0108238458633423 2.703456401824951 -0.12601642310619354
0.9862236380577087 2.673161506652832 -0.1244025006890297
0.940721333026886 2.584498405456543 -0.12008417397737503
0.9108671545982361 2.5368635654449463 -0.11768511682748795
0.8887837529182434 2.5097362995147705 -0.11624567210674286
0.8669547438621521 2.4824652671813965 -0.11480623483657837
0.850910484790802 2.4711105823516846 -0.11410832405090332
0.8507180213928223 2.50601863861084 -0.11554776132106781
0.8838406801223755 2.641397476196289 -0.1216108575463295
0.9064109325408936 2.7486469745635986 -0.12636536359786987
0.9015100598335266 2.7744290828704834 -0.12736861407756805
0.8897005319595337 2.779287815093994 -0.12741224467754364
0.8766639232635498 2.780285120010376 -0.12728138267993927
0.9137057065963745 2.9424655437469482 -0.1345221996307373
0.0 0.0 -0.0
0.6081200242042542 2.0204572677612305 -0.09212414175271988
0.5981634259223938 2.0192599296569824 -0.09194967150688171
0.5873900651931763 2.01513671875 -0.09164433181285858
0.5706056356430054 1.989830493927002 -0.09037937223911285
0.5567652583122253 1.9740320444107056 -0.08955060690641403
0.5473456978797913 1.9735544919967651 -0.08941975235939026
0.0 0.0 -0.0
0.0 0.0 -0.0
0.7427709102630615 2.821075916290283 -0.12736861407756805
0.7319556474685669 2.8300931453704834 -0.1276303380727768
0.7218135595321655 2.8419747352600098 -0.1280229091644287
0.7089229226112366 2.843158483505249 -0.12793566286563873
0.6917611956596375 2.8268163204193115 -0.12706327438354492
0.6393036246299744 2.662720203399658 -0.11956074833869934
0.5898949503898621 2.5050301551818848 -0.1123635470867157
0.5735650658607483 2.484217405319214 -0.11131668090820312
0.5744068622589111 2.5383400917053223 -0.11362850666046143
0.5542435646057129 2.499857187271118 -0.11179649829864502
0.5276433825492859 2.4300055503845215 -0.10856866091489792
0.5178664326667786 2.4361934661865234 -0.10874313116073608
0.5279848575592041 2.5381972789764404 -0.11319231241941452
0.5784555077552795 2.842984437942505 -0.126670703291893
0.5748166441917419 2.8895747661590576 -0.12863357365131378
0.5625844597816467 2.894016742706299 -0.12872081995010376
0.5499516725540161 2.8964438438415527 -0.12872081995010376
0.5351234674453735 2.8870279788970947 -0.12819738686084747
0.5193212628364563 2.8716394901275635 -0.12741224467754364
0.5052250623703003 2.865023374557495 -0.12701965868473053
0.49407294392585754 2.875077247619629 -0.12736861407756805
0.4848215878009796 2.8969128131866455 -0.12824100255966187
0.4737829566001892 2.9088611602783203 -0.12867718935012817
0.45842912793159485 2.8941259384155273 -0.12793566286563873
0.22677429020404816 1.4732285737991333 -0.06508012861013412
0.22019632160663605 1.473215937614441 -0.06503650546073914
0.2133360505104065 1.4711965322494507 -0.06490565091371536
0.2077491134405136 1.4780492782592773 -0.0651673674583435
0.20116323232650757 1.4779517650604248 -0.06512374430894852
0.39281603693962097 2.983383893966675 -0.13138160109519958
0.37903836369514465 2.979123115539551 -0.13111987709999084
0.36725369095802307 2.990664482116699 -0.13155607879161835
0.3543185293674469 2.9932308197021484 -0.13159969449043274
0.340576171875 2.9887924194335938 -0.1313379853963852
0.3280758559703827 2.99521541595459 -0.13155607879161835
0.2033528983592987 1.9344881772994995 -0.08492695540189743
0.19471001625061035 1.9333689212799072 -0.08483970910310745
0.18655963242053986 1.9371834993362427 -0.08497057110071182
0.17783108353614807 1.9349944591522217 -0.08483970910310745
0.26605430245399475 3.0404741764068604 -0.13325722515583038
0.25154414772987366 3.026671886444092 -0.13260294497013092
0.14888130128383636 1.8913419246673584 -0.08283321559429169
0.1406274288892746 1.8919734954833984 -0.08283321559429169
0.13299822807312012 1.9015387296676636 -0.0832257941365242
0.13005922734737396 1.9838473796844482 -0.08680258691310883
0.1459263116121292 2.3852639198303223 -0.10433758050203323
0.15421327948570251 2.7150332927703857 -0.11873197555541992
0.13818120956420898 2.635866165161133 -0.11524242907762527
0.1145959421992302 2.3849737644195557 -0.10425034165382385
0.10314229130744934 2.361496925354004 -0.10320347547531128
0.09754599630832672 2.481717586517334 -0.10843779891729355
0.09822769463062286 2.8116047382354736 -0.12283220142126083
0.08666100353002548 2.8349740505218506 -0.12383545190095901
0.07695949822664261 2.9371931552886963 -0.12828463315963745
0.06634574383497238 3.0383803844451904 -0.1326901763677597
0.05347173660993576 3.060616970062256 -0.1336498111486435
0.040287092328071594 3.073807716369629 -0.13421685993671417
0.01311861164867878 1.5005131959915161 -0.06551632285118103
0.006540695670992136 1.493562936782837 -0.0652109906077385
2.3713608243269846e-05 1.4885820150375366 -0.06499288976192474
-0.006484422832727432 1.4915649890899658 -0.06512374430894852
-0.013062101788818836 1.4995145797729492 -0.06547269970178604
-0.01955254189670086 1.4954475164413452 -0.06529822945594788
-0.05384455621242523 3.0875887870788574 -0.13482752442359924
-0.06729429215192795 3.0863256454467773 -0.13478390872478485
-0.08094312250614166 3.0929934978485107 -0.13508924841880798
-0.09495634585618973 3.109586715698242 -0.13583077490329742
-0.10915075987577438 3.12711501121521 -0.13661593198776245
-0.07594265043735504 1.9336657524108887 -0.08449075371026993
-0.08429194241762161 1.9313198328018188 -0.08440351486206055
-0.09305345267057419 1.937919020652771 -0.08470885455608368
-0.10568985342979431 2.0173089504241943 -0.08819840103387833
-0.0 0.0 -0.0
-0.0 0.0 -0.0
-0.15697509050369263 2.395575523376465 -0.10481739044189453
-0.16422118246555328 2.3490233421325684 -0.10281089693307877
-0.1702498346567154 2.2914953231811523 -0.1003246009349823
-0.15579581260681152 1.9799879789352417 -0.08671534061431885
-0.1579819619655609 1.901631236076355 -0.08331303298473358
-0.16532018780708313 1.889975905418396 -0.08283321559429169
-0.17237694561481476 1.8763034343719482 -0.08226616680622101
-0.3042558431625366 3.1603634357452393 -0.13862241804599762
-0.31734198331832886 3.152047634124756 -0.13831709325313568
-0.330987811088562 3.149639368057251 -0.1382734626531601
-0.34450995922088623 3.146178960800171 -0.1381862312555313
-0.3585735857486725 3.1476237773895264 -0.13831709325313568
-0.37265637516975403 3.149005651473999 -0.13844794034957886
-0.3877319395542145 3.158257246017456 -0.13892775774002075
-0.4017607271671295 3.158517360687256 -0.13901498913764954
-0.41345226764678955 3.1408865451812744 -0.13831709325313568
-0.42742231488227844 3.1410322189331055 -0.13840432465076447
-0.44140151143074036 3.141116142272949 -0.13849155604839325
-0.45567625761032104 3.1431150436401367 -0.138666033744812
-0.4727822542190552 3.163822889328003 -0.1396692842245102
-0.4870382845401764 3.1646921634674072 -0.13980014622211456
-0.5000607371330261 3.1576030254364014 -0.13958203792572021
-0.5176872611045837 3.1790566444396973 -0.14062891900539398
-0.5364996790885925 3.2063279151916504 -0.1419374942779541
-0.5516688823699951 3.210848808288574 -0.14224283397197723
-0.5628980398178101 3.192669153213501 -0.14154492318630219
-0.0442616268992424 0.24479368329048157 -0.010861228220164776
-0.04369090124964714 0.23575733602046967 -0.010468653403222561
-0.04732777550816536 0.24930569529533386 -0.011079324409365654
-0.04841511696577072 0.2490968257188797 -0.011079324409365654
-0.04677310958504677 0.23516523838043213 -0.010468653403222561
-0.048595402389764786 0.2388748973608017 -0.010643131099641323
-0.050654374063014984 0.24355117976665497 -0.010861228220164776
-0.051924269646406174 0.24430504441261292 -0.010904846712946892
-0.052141912281513214 0.2401709407567978 -0.01073036901652813
-0.05297313258051872 0.23896577954292297 -0.010686749592423439
-0.053574368357658386 0.23678354918956757 -0.010599511675536633
-0.04966316744685173 0.2151317000389099 -0.009639885276556015
-0.049685511738061905 0.21102313697338104 -0.009465407580137253
-0.05363747105002403 0.22343315184116364 -0.010032459162175655
-0.05651140958070755 0.23096035420894623 -0.01038141455501318
-0.055585216730833054 0.2229565680027008 -0.010032459162175655
-0.05508210137486458 0.21690204739570618 -0.009770742617547512
-0.05577785521745682 0.2156924158334732 -0.009727123193442822
-0.05748148262500763 0.21834538877010345 -0.009857981465756893
-0.06153630465269089 0.2296726107597351 -0.01038141455501318
-0.06358890980482101 0.2332574427127838 -0.010555892251431942
-0.06460607051849365 0.2329777628183365 -0.010555892251431942
-0.06480851024389267 0.2298090159893036 -0.01042503397911787
-0.06470917910337448 0.22568264603614807 -0.010250556282699108
-0.06625237315893173 0.22731643915176392 -0.01033779513090849
-0.06809477508068085 0.22989892959594727 -0.010468653403222561
-0.06880933791399002 0.22864295542240143 -0.01042503397911787
-0.06951422989368439 0.22738513350486755 -0.01038141455501318
-0.0710982084274292 0.2289879024028778 -0.010468653403222561
-0.07239707559347153 0.229628324508667 -0.010512272827327251
-0.07218008488416672 0.22550426423549652 -0.01033779513090849
-0.07161980867385864 0.22043639421463013 -0.010119698010385036
-0.06945246458053589 0.210633784532547 -0.009683504700660706
-0.06720099598169327 0.20085446536540985 -0.0092473104596138
-0.06904009729623795 0.2033974528312683 -0.009378168731927872
-0.06927643716335297 0.20120501518249512 -0.00929092988371849
-0.07180049270391464 0.2056168168783188 -0.009509027004241943
-0.07703211158514023 0.2175443172454834 -0.010076078586280346
-0.07730542868375778 0.21532556414604187 -0.00998884066939354
-0.07926925271749496 0.21780262887477875 -0.010119698010385036
-0.08091037720441818 0.21932928264141083 -0.010206936858594418
-0.08361589163541794 0.22365310788154602 -0.01042503397911787
-0.0863606408238411 0.22795738279819489 -0.010643131099641323
-0.08628043532371521 0.22478030622005463 -0.010512272827327251
-0.0 0.0 -0.0
-0.0 0.0 -0.0
-0.0 0.0 -0.0
-0.0 0.0 -0.0
-0.0 0.0 -0.0
-0.0 0.0 -0.0
-0.0 0.0 -0.0
-0.0 0.0 -0.0
-0.0 0.0 -0.0
-0.0 0.0 -0.0
-0.0 0.0 -0.0
-0.0 0.0 -0.0
-0.0 0.0 -0.0
-0.0 0.0 -0.0
-0.0 0.0 -0.0
-0.0 0.0 -0.0
-0.0 0.0 -0.0
-0.0 0.0 -0.0
-0.0 0.0 -0.0
-0.0 0.0 -0.0
-0.0 0.0 -0.0
-0.0 0.0 -0.0
-0.0 0.0 -0.0
-0.0 0.0 -0.0
-0.0 0.0 -0.0
-1.1066412925720215 2.125934362411499 -0.10464291274547577
-0.0 0.0 -0.0
-0.0 0.0 -0.0
-0.0 0.0 -0.0
-0.0 0.0 -0.0
-1.6049189567565918 2.9255104064941406 -0.1456887573003769
-0.0 0.0 -0.0
-0.0 0.0 -0.0
-0.0 0.0 -0.0
-0.0 0.0 -0.0
-0.0 0.0 -0.0
-0.0 0.0 -0.0
-0.0 0.0 -0.0
-0.0 0.0 -0.0
-0.0 0.0 -0.0
-1.526803970336914 2.516202211380005 -0.1285027116537094
-0.0 0.0 -0.0
-0.0 0.0 -0.0
-0.0 0.0 -0.0
-1.061916470527649 1.6831066608428955 -0.0868898257613182
-1.0789121389389038 1.6936239004135132 -0.08767496794462204
-1.0835894346237183 1.6846990585327148 -0.08745687454938889
-1.0822242498397827 1.6665488481521606 -0.08675896376371384
-1.6153308153152466 2.4638917446136475 -0.12863357365131378
-1.6878223419189453 2.5501272678375244 -0.13351894915103912
-1.930379033088684 2.8891360759735107 -0.1517082303762436
-1.9351457357406616 2.8690903186798096 -0.15109756588935852
-1.924593448638916 2.826760768890381 -0.1493091583251953
-1.9844406843185425 2.887498140335083 -0.1529732048511505
-2.094964027404785 3.0200023651123047 -0.1604757308959961
-2.1430752277374268 3.0607542991638184 -0.16313651204109192
-2.153527021408081 3.047294855117798 -0.16291841864585876
-2.152299404144287 3.01753568649292 -0.1618279367685318
-0.0 0.0 -0.0
-1.1427110433578491 1.5728708505630493 -0.08488333225250244
-1.1395206451416016 1.554173231124878 -0.084141805768013
-1.1563931703567505 1.562839150428772 -0.08488333225250244
-1.5063037872314453 2.0172672271728516 -0.10992086678743362
-1.5283182859420776 2.028228998184204 -0.11088048666715622
-0.0 0.0 -0.0
-1.836054801940918 2.392889976501465 -0.13168692588806152
-1.8342459201812744 2.3690569400787354 -0.1308145374059677
-1.694490671157837 2.1689364910125732 -0.12017141282558441
-1.5796217918395996 2.00382137298584 -0.1114039197564125
-1.5821309089660645 1.9890912771224976 -0.1109677255153656
-0.0 0.0 -0.0
-2.296035051345825 2.8354811668395996 -0.15929800271987915
-0.0 0.0 -0.0
-1.921623945236206 2.331209897994995 -0.13190503418445587
-0.0 0.0 -0.0
-2.343886613845825 2.793447494506836 -0.15921077132225037
-0.15556403994560242 0.18376705050468445 -0.010512272827327251
-0.17647764086723328 0.20663706958293915 -0.011864474043250084
-0.20085404813289642 0.23311194777488708 -0.01343477237969637
-0.21235597133636475 0.24429740011692047 -0.014132681302726269
-0.22066561877727509 0.2516309916973114 -0.014612494967877865
-0.22904318571090698 0.2588966190814972 -0.015092308633029461
-0.2255140244960785 0.2526772618293762 -0.014786972664296627
-0.22661437094211578 0.2516908645629883 -0.014786972664296627
-0.2324123978614807 0.255876362323761 -0.015092308633029461
-0.2342015653848648 0.25559642910957336 -0.015135927125811577
-0.23395831882953644 0.2531048655509949 -0.015048690140247345
-0.23301644623279572 0.24988959729671478 -0.014917830936610699
-0.23478908836841583 0.2495981901884079 -0.01496145036071539
-0.23656359314918518 0.24929605424404144 -0.01500506978482008
-0.23419490456581116 0.24465304613113403 -0.014786972664296627
-0.23664812743663788 0.24506619572639465 -0.014874211512506008
-0.23771516978740692 0.24403129518032074 -0.014874211512506008
-0.23527655005455017 0.23942884802818298 -0.01465611532330513
-0.23772567510604858 0.23981903493404388 -0.014743354171514511
-0.23806338012218475 0.23807302117347717 -0.014699733816087246
-0.2390998899936676 0.23703202605247498 -0.014699733816087246
-0.23656906187534332 0.23248520493507385 -0.014481637626886368
-0.2354343980550766 0.22935935854911804 -0.014350779354572296
-0.23715154826641083 0.22902391850948334 -0.014394397847354412
-0.23959191143512726 0.22936871647834778 -0.014481637626886368
-0.2398657649755478 0.22763341665267944 -0.014438018202781677
-0.24085672199726105 0.22658465802669525 -0.014438018202781677
-0.24038179218769073 0.2241688370704651 -0.014350779354572296
-0.24062399566173553 0.22243967652320862 -0.014307158999145031
-0.24011914432048798 0.22003771364688873 -0.01421992015093565
-0.20643764734268188 -0.18916526436805725 0.0
-0.20487599074840546 -0.18938541412353516 0.0
-0.20551040768623352 -0.19164153933525085 0.0
-0.20540063083171844 -0.19322159886360168 0.0
-0.2016541063785553 -0.19136257469654083 0.0
-0.20009484887123108 -0.19154909253120422 0.0
-0.19997651875019073 -0.1931150108575821 0.0
-0.20199719071388245 -0.196776881814003 0.0
-0.1997101604938507 -0.19625455141067505 0.0
-0.19743159413337708 -0.19571606814861298 0.0
-0.19233310222625732 -0.19233301281929016 0.0
-0.19149206578731537 -0.19317038357257843 0.0
-0.18504010140895844 -0.1882980614900589 0.0
-0.1807277947664261 -0.1855221539735794 0.0
-0.1799165904521942 -0.18630895018577576 0.0
-0.17495287954807281 -0.18275803327560425 0.0
-0.17208871245384216 -0.18134352564811707 0.0
-0.1685550957918167 -0.17917919158935547 0.0
-0.1650436967611313 -0.17698752880096436 0.0
-0.16562747955322266 -0.17917463183403015 0.0
-0.16416852176189423 -0.17915832996368408 0.0
-0.16136813163757324 -0.1776522696018219 0.0
-0.16192971169948578 -0.17984096705913544 0.0
-0.16047759354114532 -0.17979975044727325 0.0
-0.1577036827802658 -0.17825137078762054 0.0
-0.15692441165447235 -0.17893777787685394 0.0
-0.1581103503704071 -0.18188491463661194 0.0
-0.15796798467636108 -0.18333062529563904 0.0
-0.15716657042503357 -0.18401814997196198 0.0
-0.1563621461391449 -0.18470215797424316 0.0
-0.15555474162101746 -0.1853826493024826 0.0
-0.15410494804382324 -0.18529076874256134 0.0
-0.15329501032829285 -0.18596141040325165 0.0
-0.15058402717113495 -0.1843053251504898 0.0
-0.14977841079235077 -0.18496061861515045 0.0
-0.15084773302078247 -0.18795204162597656 0.0
-0.14940369129180908 -0.18782582879066467 0.0
-0.14610634744167328 -0.1853346824645996 0.0
-0.14714327454566956 -0.18833443522453308 0.0
-0.14693233370780945 -0.18976536393165588 0.0
-0.14549417793750763 -0.1896113157272339 0.0
-0.14587604999542236 -0.19183634221553802 0.0
-0.1444358080625534 -0.19167238473892212 0.0
-0.14359810948371887 -0.19230076670646667 0.0
-0.14394733309745789 -0.19453321397304535 0.0
-0.1448710858821869 -0.1975787729024887 0.0
-0.14635875821113586 -0.201445072889328 0.0
-0.14547841250896454 -0.20208176970481873 0.0
-0.1393689513206482 -0.1953875720500946 0.0
-0.1362065076828003 -0.1927272528409958 0.0
-0.1393793225288391 -0.1990537941455841 0.0
-0.13394948840141296 -0.1930868774652481 0.0
-0.12630882859230042 -0.1837799847126007 0.0
-0.1294453889131546 -0.19011548161506653 0.0
-0.1308514028787613 -0.19399462640285492 0.0
-0.12944813072681427 -0.19373224675655365 0.0
-0.12804965674877167 -0.1934613436460495 0.0
-0.12555943429470062 -0.19150936603546143 0.0
-0.12472262233495712 -0.19205538928508759 0.0
-0.1287522166967392 -0.20016710460186005 0.0
-0.132176011800766 -0.20747411251068115 0.0
-0.12966863811016083 -0.205511674284935 0.0
-0.12612110376358032 -0.2018352597951889 0.0
-0.12944895029067993 -0.20918644964694977 0.0
-0.12592248618602753 -0.20548608899116516 0.0
-0.12087449431419373 -0.1991942822933197 0.0
-0.12360947579145432 -0.2057199627161026 0.0
-0.1252671629190445 -0.2105543613433838 0.0
-0.1243472546339035 -0.21109893918037415 0.0
-0.12090611457824707 -0.20732031762599945 0.0
-0.11900036036968231 -0.20611384510993958 0.0
-0.1161150261759758 -0.20315833389759064 0.0
-0.1176896020770073 -0.2080148160457611 0.0
-0.1167808547616005 -0.2085263431072235 0.0
-0.11296101659536362 -0.2037861943244934 0.0
-0.11399473249912262 -0.207784041762352 0.0
-0.11451850086450577 -0.21091589331626892 0.0
-0.11359712481498718 -0.21141356229782104 0.0
-0.11361253261566162 -0.21367311477661133 0.0
-0.1126791387796402 -0.2141668051481247 0.0
-0.10943484306335449 -0.21022136509418488 0.0
-0.10760079324245453 -0.20891882479190826 0.0
-0.1057802140712738 -0.207604318857193 0.0
-0.10532347112894058 -0.20895686745643616 0.0
-0.10530313104391098 -0.21120430529117584 0.0
-0.10526515543460846 -0.21345549821853638 0.0
-0.10608628392219543 -0.21750794351100922 0.0
-0.10513622313737869 -0.21796876192092896 0.0
-0.10375364869832993 -0.21752284467220306 0.0
-0.10024412721395493 -0.21254675090312958 0.0
-0.1026967316865921 -0.22023257613182068 0.0
-0.10340946167707443 -0.22431114315986633 0.0
-0.09828279912471771 -0.21566061675548553 0.0
-0.09487654268741608 -0.2106168270111084 0.0
-0.09273644536733627 -0.20828816294670105 0.0
-0.09222949296236038 -0.2096061259508133 0.0
-0.09131404012441635 -0.21000654995441437 0.0
-0.09158109128475189 -0.21315935254096985 0.0
-0.09182234108448029 -0.21631842851638794 0.0
-0.08971747010946274 -0.21395041048526764 0.0
-0.08763503283262253 -0.2115682065486908 0.0
-0.0889829695224762 -0.21750180423259735 0.0
-0.09102997183799744 -0.2253054678440094 0.0
-0.08893435448408127 -0.22291406989097595 0.0
-0.08649485558271408 -0.2195783406496048 0.0
-0.0862608328461647 -0.22181765735149384 0.0
-0.08529215306043625 -0.2221919298171997 0.0
-0.08290468156337738 -0.2188214361667633 0.0
-0.08299975097179413 -0.22199110686779022 0.0
-0.08549153804779053 -0.231733039021492 0.0
-0.08379556238651276 -0.23022447526454926 0.0
-0.08110063523054123 -0.22588202357292175 0.0
-0.07877904176712036 -0.2224631905555725 0.0
-0.07813731580972672 -0.22374889254570007 0.0
-0.07976485043764114 -0.23165182769298553 0.0
-0.07714612036943436 -0.22726301848888397 0.0
-0.0752018541097641 -0.2247525155544281 0.0
-0.07547314465045929 -0.22887727618217468 0.0
-0.07385572791099548 -0.22730229794979095 0.0
-0.07286323606967926 -0.227622389793396 0.0
-0.0718693658709526 -0.22793814539909363 0.0
-0.07087411731481552 -0.22824956476688385 0.0
-0.07016990333795547 -0.22951294481754303 0.0
-0.07003240287303925 -0.23268964886665344 0.0
-0.06873242557048798 -0.23203417658805847 0.0
-0.06771934032440186 -0.23233187198638916 0.0
-0.06698060780763626 -0.2335864007472992 0.0
-0.06541787832975388 -0.2319515198469162 0.0
-0.06493967026472092 -0.23416200280189514 0.0
-0.06418037414550781 -0.23540791869163513 0.0
-0.06289378553628922 -0.23471978306770325 0.0
-0.06186903640627861 -0.23499198257923126 0.0
-0.06084311008453369 -0.23525969684123993 0.0
-0.06006218492984772 -0.23649215698242188 0.0
-0.058545880019664764 -0.23481138050556183 0.0
-0.05894690752029419 -0.24089264869689941 0.0
-0.05742836371064186 -0.2392028123140335 0.0
-0.05638410896062851 -0.2394511103630066 0.0
-0.05511382222175598 -0.23872047662734985 0.0
-0.052968189120292664 -0.23408198356628418 0.0
-0.050647661089897156 -0.22845309972763062 0.0
-0.04965037479996681 -0.22867192327976227 0.0
-0.04865214228630066 -0.22888638079166412 0.0
-0.04704204574227333 -0.22615934908390045 0.0
-0.043861713260412216 -0.21558329463005066 0.0
-0.04077461361885071 -0.20498397946357727 0.0
-0.04121550917625427 -0.21203133463859558 0.0
-0.3900292217731476 -2.054302453994751 0.0
-0.38744038343429565 -2.0903987884521484 0.0
-0.3859674334526062 -2.134382963180542 0.0
-0.3825549781322479 -2.169530153274536 0.0
-0.37985917925834656 -2.2106008529663086 0.0
-0.3764820694923401 -2.249716281890869 0.0
-0.3721276819705963 -2.284895181655884 0.0
-0.3663783073425293 -2.313164710998535 0.0
-0.35673820972442627 -2.317706346511841 0.0
-0.7746891379356384 -5.18342924118042 0.0
-0.750773549079895 -5.177853584289551 0.0
-0.7273388504981995 -5.175138473510742 0.0
-0.7043467164039612 -5.175289630889893 0.0
-0.6809756755828857 -5.172365665435791 0.0
-0.6578958034515381 -5.171319484710693 0.0
-0.6349599957466125 -5.171163082122803 0.0
-0.6113328337669373 -5.164947032928467 0.0
-0.5879984498023987 -5.160610198974609 0.0
-0.5648223757743835 -5.157162189483643 0.0
-0.5415831208229065 -5.152616024017334 0.0
-0.5184944868087769 -5.148960113525391 0.0
-0.4956398010253906 -5.147192001342773 0.0
-0.4728103578090668 -5.145322322845459 0.0
-0.44983240962028503 -5.141359329223633 0.0
-0.4271464943885803 -5.140283584594727 0.0
-0.4042431116104126 -5.136116981506348 0.0
-0.3815324604511261 -5.133842468261719 0.0
-0.35870984196662903 -5.1294732093811035 0.0
-0.3360634446144104 -5.126997470855713 0.0
-0.31338444352149963 -5.123425006866455 0.0
-0.29079970717430115 -5.1207499504089355 0.0
-0.26834896206855774 -5.1199727058410645 0.0
-0.24586255848407745 -5.118098258972168 0.0
-0.22326675057411194 -5.113127708435059 0.0
-0.20079755783081055 -5.1100568771362305 0.0
-0.17832449078559875 -5.105886936187744 0.0
-0.15586109459400177 -5.100619316101074 0.0
-0.1334732472896576 -5.09625244140625 0.0
-0.11117012053728104 -5.09378719329834 0.0
-0.08890850841999054 -5.09222412109375 0.0
-0.06664954870939255 -5.089563846588135 0.0
-0.04443297162652016 -5.08880615234375 0.0
-0.022206798195838928 -5.083951473236084 0.0
-2.383980063314084e-05 -5.080000400543213 0.0
0.022124212235212326 -5.075952053070068 0.0
0.044175885617733 -5.064807415008545 0.0
0.06620924174785614 -5.059567451477051 0.0
0.01798849180340767 -1.0308430194854736 0.0
0.022486181929707527 -1.030754804611206 0.0
0.026957275345921516 -1.0296472311019897 0.0
0.0312969945371151 -1.0245221853256226 0.0
0.03583676740527153 -1.0263745784759521 0.0
0.04058957099914551 -1.0332030057907104 0.0
0.04636216536164284 -1.0619885921478271 0.0
0.06821785122156143 -1.4203628301620483 0.0
0.07635089755058289 -1.457000970840454 0.0
0.08242403715848923 -1.4516620635986328 0.0
0.0885130912065506 -1.447295904159546 0.0
0.09482721239328384 -1.446895956993103 0.0
0.35098904371261597 -5.019743919372559 0.0
0.3733328878879547 -5.024148464202881 0.0
0.3954080641269684 -5.024466037750244 0.0
