# .PCD v0.7 - Point Cloud Data file format
VERSION 0.7
FIELDS x y z
SIZE 4 4 4
TYPE F F F
COUNT 1 1 1
WIDTH 928
HEIGHT 1
VIEWPOINT 0 0 0 1 0 0 0
POINTS 928
DATA ascii
0.4887191355228424 1.5266835689544678 0.0
0.47964736819267273 1.5211718082427979 0.0
0.4795297384262085 1.5442605018615723 0.0
0.508458137512207 1.6630067825317383 0.0
0.5461578369140625 1.8145899772644043 0.0
0.539939284324646 1.8227087259292603 0.0
0.5317012667655945 1.824087142944336 0.0
0.5218076705932617 1.819661021232605 0.0
0.5125057101249695 1.8171082735061646 0.0
0.5043050050735474 1.8183634281158447 0.0
0.49505096673965454 1.8157227039337158 0.0
0.4847942590713501 1.8091721534729004 0.0
0.47562259435653687 1.806434988975525 0.0
0.4689880609512329 1.8133338689804077 0.0
0.462794691324234 1.8221474885940552 0.0
0.4541139006614685 1.8212385177612305 0.0
0.4464007318019867 1.8241740465164185 0.0
0.44193896651268005 1.8406898975372314 0.0
0.4361954629421234 1.8523344993591309 0.0
0.43238335847854614 1.8727329969406128 0.0
0.4319329261779785 1.9087387323379517 0.0
0.4281459450721741 1.9311072826385498 0.0
0.4207768440246582 1.9378430843353271 0.0
0.4137730002403259 1.9465076923370361 0.0
0.4040539264678955 1.9424203634262085 0.0
0.39557474851608276 1.9441648721694946 0.0
0.38845378160476685 1.952737808227539 0.0
0.3797389268875122 1.953432559967041 0.0
0.3702792227268219 1.950158715248108 0.0
0.3619488477706909 1.952738881111145 0.0
0.35324710607528687 1.9533156156539917 0.0
0.34367889165878296 1.9489295482635498 0.0
0.33500251173973083 1.9494248628616333 0.0
0.3259982466697693 1.9479093551635742 0.0
0.3168528079986572 1.9453651905059814 0.0
0.3011649549007416 1.90129554271698 0.0
0.24859395623207092 1.6149790287017822 0.0
0.22291910648345947 1.491432547569275 0.0
0.21339578926563263 1.4716085195541382 0.0
0.2083645910024643 1.4824281930923462 0.0
0.2113349586725235 1.552683711051941 0.0
0.24502594769001007 1.8609384298324585 0.0
0.24965141713619232 1.9621820449829102 0.0
0.2430376410484314 1.9791333675384521 0.0
0.23381203413009644 1.9752097129821777 0.0
0.22473853826522827 1.9722368717193604 0.0
0.21721979975700378 1.983139157295227 0.0
0.2063693106174469 1.9631831645965576 0.0
0.19509592652320862 1.937200903892517 0.0
0.1864497810602188 1.9360427856445312 0.0
0.18193572759628296 1.9796574115753174 0.0
0.19587352871894836 2.2384467124938965 0.0
0.19488398730754852 2.3449158668518066 0.0
0.16864179074764252 2.1423728466033936 0.0
0.14342986047267914 1.92967689037323 0.0
0.13277606666088104 1.898362398147583 0.0
0.12769722938537598 1.9478187561035156 0.0
0.13861550390720367 2.265763998031616 0.0
0.14381243288516998 2.531919002532959 0.0
0.12826134264469147 2.4466404914855957 0.0
0.11350526660680771 2.362274646759033 0.0
0.10319690406322479 2.3627474308013916 0.0
0.09862081706523895 2.5090627670288086 0.0
0.09744838625192642 2.7892982959747314 0.0
0.08622413128614426 2.8206825256347656 0.0
0.07475403696298599 2.8530209064483643 0.0
0.0936318188905716 4.287977695465088 0.0
0.07731441408395767 4.4253249168396 0.0
0.05831925943493843 4.449618339538574 0.0
0.013113624416291714 1.4999427795410156 0.0
0.006538167595863342 1.492985725402832 0.0
2.3720267563476227e-05 1.4890000820159912 0.0
-0.006490600295364857 1.4929859638214111 0.0
-0.013039703480899334 1.4969433546066284 0.0
-0.01958424225449562 1.497871994972229 0.0
-0.07729547470808029 4.432326316833496 0.0
-0.09674323350191116 4.43694543838501 0.0
-0.11602349579334259 4.433482646942139 0.0
-0.13469542562961578 4.410943984985352 0.0
-0.0 0.0 0.0
-0.07609349489212036 1.9375064373016357 0.0
-0.08445944637060165 1.9351577758789062 0.0
-0.09314210712909698 1.939765214920044 0.0
-0.10558126866817474 2.0152361392974854 0.0
-0.13318993151187897 2.3462226390838623 0.0
-0.14635543525218964 2.3935296535491943 0.0
-0.1552937924861908 2.369917392730713 0.0
-0.1643776297569275 2.3512613773345947 0.0
-0.17219024896621704 2.317612409591675 0.0
-0.1648866981267929 2.095522880554199 0.0
-0.1592087596654892 1.9163981676101685 0.0
-0.16634908318519592 1.9017384052276611 0.0
-0.18406830728054047 2.0035626888275146 0.0
-0.22414487600326538 2.328235626220703 0.0
-0.23890939354896545 2.373004198074341 0.0
-0.24999280273914337 2.3789007663726807 0.0
-0.2604790925979614 2.378781318664551 0.0
-0.2705163359642029 2.3746414184570312 0.0
-0.2811100482940674 2.37542462348938 0.0
-0.2920812666416168 2.3791379928588867 0.0
-0.30245935916900635 2.377840995788574 0.0
-0.3129621744155884 2.3774900436401367 0.0
-0.32414186000823975 2.382047176361084 0.0
-0.3353672921657562 2.386551856994629 0.0
-0.34620770812034607 2.3880345821380615 0.0
-0.3573630750179291 2.391446590423584 0.0
-0.3673379123210907 2.386899471282959 0.0
-0.3749336004257202 2.36749529838562 0.0
-0.3875102400779724 2.379654884338379 0.0
-0.39805471897125244 2.378927707672119 0.0
-0.4096162021160126 2.3840670585632324 0.0
-0.41966739296913147 2.3802874088287354 0.0
-0.4298713505268097 2.3774497509002686 0.0
-0.441334068775177 2.38145112991333 0.0
-0.45172080397605896 2.379502773284912 0.0
-0.4615265727043152 2.3745641708374023 0.0
-0.46973729133605957 2.361739158630371 0.0
-0.4790409803390503 2.354767322540283 0.0
-0.4897181987762451 2.3546128273010254 0.0
-0.5020663142204285 2.3622353076934814 0.0
-0.5117321610450745 2.357090473175049 0.0
-0.0452323779463768 0.20404665172100067 0.0
-0.04788770526647568 0.21165011823177338 0.0
-0.04611153155565262 0.19974666833877563 0.0
-0.0446908064186573 0.18980973958969116 0.0
-0.04761943221092224 0.19836430251598358 0.0
-0.04895983636379242 0.20009732246398926 0.0
-0.051283884793519974 0.20570360124111176 0.0
-0.054396167397499084 0.21420098841190338 0.0
-0.055580634623765945 0.2149297595024109 0.0
-0.058045413345098495 0.22048750519752502 0.0
-0.059783317148685455 0.22312991321086884 0.0
-0.06023029983043671 0.22093737125396729 0.0
-0.06199540197849274 0.22356335818767548 0.0
-0.06324170529842377 0.22425319254398346 0.0
-0.06366834044456482 0.22205257415771484 0.0
-0.06519623845815659 0.22369277477264404 0.0
-0.06617165356874466 0.22340616583824158 0.0
-0.06599309295415878 0.2192850112915039 0.0
-0.0672416165471077 0.21995128691196442 0.0
-0.06909026205539703 0.2225208729505539 0.0
-0.06945914775133133 0.22030985355377197 0.0
-0.06889552623033524 0.2152426838874817 0.0
-0.06705303490161896 0.2063804566860199 0.0
-0.06763974577188492 0.20513620972633362 0.0
-0.07012061029672623 0.20958079397678375 0.0
-0.07199867069721222 0.2121136337518692 0.0
-0.07097019255161285 0.20612432062625885 0.0
-0.07087986916303635 0.2029804140329361 0.0
-0.07009591162204742 0.19795596599578857 0.0
-0.07400008291006088 0.2061188817024231 0.0
-0.07763475924730301 0.21331162750720978 0.0
-0.0754498541355133 0.2045270800590515 0.0
-0.07564116269350052 0.2023225575685501 0.0
-0.07935743033885956 0.2094717174768448 0.0
-0.08170406520366669 0.21285782754421234 0.0
-0.08081993460655212 0.2078392207622528 0.0
-0.08135955035686493 0.20655418932437897 0.0
-0.0841127336025238 0.21084129810333252 0.0
-0.08727943152189255 0.21603542566299438 0.0
-0.08708532154560089 0.21287590265274048 0.0
-0.08380400389432907 0.20233115553855896 0.0
-0.08352594822645187 0.1991969347000122 0.0
-0.08712930977344513 0.20527417957782745 0.0
-0.08683996647596359 0.20213566720485687 0.0
-0.08811984956264496 0.20267190039157867 0.0
-0.08980878442525864 0.2041161060333252 0.0
-0.08785150200128555 0.19732743501663208 0.0
-0.08624745160341263 0.1914716213941574 0.0
-0.08708208054304123 0.19109347462654114 0.0
-0.09126421064138412 0.19797688722610474 0.0
-0.0938175842165947 0.20120206475257874 0.0
-0.0917087197303772 0.19445954263210297 0.0
-0.09126485139131546 0.19134975969791412 0.0
-0.09557432681322098 0.19815537333488464 0.0
-0.09906814992427826 0.20312929153442383 0.0
-0.09685761481523514 0.1964169293642044 0.0
-0.09235954284667969 0.18525312840938568 0.0
-0.09361705183982849 0.1857413500547409 0.0
-0.09397263079881668 0.18444010615348816 0.0
-0.09981293231248856 0.19380758702754974 0.0
-0.09927242249250412 0.1907091736793518 0.0
-0.09498202055692673 0.18053925037384033 0.0
-0.10421905666589737 0.1960163116455078 0.0
-0.10176020860671997 0.18939340114593506 0.0
-0.09590562433004379 0.17664402723312378 0.0
-0.09619448333978653 0.17534714937210083 0.0
-0.09501948952674866 0.17142724990844727 0.0
-0.09674378484487534 0.17275603115558624 0.0
-0.09946627169847488 0.1758137196302414 0.0
-0.1012248545885086 0.17711447179317474 0.0
-0.0 0.0 0.0
-0.0 0.0 0.0
-0.0 0.0 0.0
-0.0 0.0 0.0
-0.0 0.0 0.0
-0.0 0.0 0.0
-0.0 0.0 0.0
-0.0 0.0 0.0
-0.0 0.0 0.0
-0.0 0.0 0.0
-0.0 0.0 0.0
-0.0 0.0 0.0
-0.0 0.0 0.0
-0.0 0.0 0.0
-0.0 0.0 0.0
-0.0 0.0 0.0
-0.0 0.0 0.0
-0.0 0.0 0.0
-0.0 0.0 0.0
-0.0 0.0 0.0
-0.0 0.0 0.0
-0.0 0.0 0.0
-0.0 0.0 0.0
-0.0 0.0 0.0
-0.0 0.0 0.0
-0.0 0.0 0.0
-0.0 0.0 0.0
-0.0 0.0 0.0
-0.0 0.0 0.0
-0.0 0.0 0.0
-0.0 0.0 0.0
-0.13162340223789215 0.1700008362531662 0.0
-0.1403673142194748 0.17966921627521515 0.0
-0.14734070003032684 0.1869083195924759 0.0
-0.15126733481884003 0.19017675518989563 0.0
-0.15585114061832428 0.19419430196285248 0.0
-0.1529211550951004 0.18884949386119843 0.0
-0.15184561908245087 0.18585723638534546 0.0
-0.1501108855009079 0.1821063756942749 0.0
-0.15026460587978363 0.18068081140518188 0.0
-0.15233708918094635 0.18155555427074432 0.0
-0.15442003309726715 0.18241561949253082 0.0
-0.15456505119800568 0.1809796839952469 0.0
-0.15339501202106476 0.1780308187007904 0.0
-0.1535143107175827 0.17660510540008545 0.0
-0.15362410247325897 0.17518173158168793 0.0
-0.15571221709251404 0.1760077029466629 0.0
-0.15647870302200317 0.1753266155719757 0.0
-0.15791133046150208 0.17538534104824066 0.0
-0.16203683614730835 0.1783958226442337 0.0
-0.1655159890651703 0.18063625693321228 0.0
-0.1703753024339676 0.18431837856769562 0.0
-0.1739058643579483 0.1864987015724182 0.0
-0.1740327626466751 0.18500973284244537 0.0
-0.1775917261838913 0.18715016543865204 0.0
-0.19431109726428986 0.20298819243907928 0.0
-0.2056145817041397 0.21292872726917267 0.0
-0.21491502225399017 0.2206253558397293 0.0
-0.2298935204744339 0.23395079374313354 0.0
-0.23654413223266602 0.238627091050148 0.0
-0.2404114305973053 0.24042117595672607 0.0
-0.23861750960350037 0.23655380308628082 0.0
-0.23608121275901794 0.232005774974823 0.0
-0.23637497425079346 0.23027566075325012 0.0
-0.23881612718105316 0.23063145577907562 0.0
-0.24054251611232758 0.23027876019477844 0.0
-0.24154499173164368 0.2292270064353943 0.0
-0.24327124655246735 0.22885610163211823 0.0
-0.24207347631454468 0.22574642300605774 0.0
-0.24305617809295654 0.22468803822994232 0.0
-0.24403423070907593 0.22362537682056427 0.0
-0.18856336176395416 -0.17278648912906647 0.011166563257575035
-0.18193866312503815 -0.168182373046875 0.010817608796060085
-0.1804724484682083 -0.16829326748847961 0.010773989371955395
-0.18191944062709808 -0.17113269865512848 0.010904846712946892
-0.1789969652891159 -0.16986174881458282 0.010773989371955395
-0.18330584466457367 -0.17547711730003357 0.011079324409365654
-0.18900634348392487 -0.182521253824234 0.011471899226307869
-0.18749254941940308 -0.18264709413051605 0.011428280733525753
-0.1795680820941925 -0.17646099627017975 0.010992085561156273
-0.17808692157268524 -0.17653948068618774 0.010948467068374157
-0.17236989736557007 -0.1723698079586029 0.010643131099641323
-0.17091281712055206 -0.1724107563495636 0.010599511675536633
-0.17295987904071808 -0.17600513994693756 0.010773989371955395
-0.17149312794208527 -0.17604251205921173 0.01073036901652813
-0.17002937197685242 -0.1760704517364502 0.010686749592423439
-0.16995036602020264 -0.1775323450565338 0.01073036901652813
-0.16848643124103546 -0.17754751443862915 0.010686749592423439
-0.16771014034748077 -0.17828097939491272 0.010686749592423439
-0.1669306457042694 -0.1790110468864441 0.010686749592423439
-0.16682614386081696 -0.18047133088111877 0.01073036901652813
-0.165362149477005 -0.18046094477176666 0.010686749592423439
-0.16457317769527435 -0.18118074536323547 0.010686749592423439
-0.1631125807762146 -0.18115468323230743 0.010643131099641323
-0.1603248566389084 -0.1796286255121231 0.010512272827327251
-0.1602015495300293 -0.18107469379901886 0.010555892251431942
-0.1587512195110321 -0.1810208559036255 0.010512272827327251
-0.15730443596839905 -0.18095780909061432 0.010468653403222561
-0.1571654975414276 -0.18239930272102356 0.010512272827327251
-0.15701697766780853 -0.1838430017232895 0.010555892251431942
-0.1575043499469757 -0.1860513687133789 0.010643131099641323
-0.15733321011066437 -0.18750214576721191 0.010686749592423439
-0.15651358664035797 -0.1881868541240692 0.010686749592423439
-0.15442004799842834 -0.18732620775699615 0.010599511675536633
-0.1561296433210373 -0.1910928189754486 0.010773989371955395
-0.1565518081188202 -0.19332504272460938 0.010861228220164776
-0.15320545434951782 -0.19088971614837646 0.010686749592423439
-0.15361495316028595 -0.1931201070547104 0.010773989371955395
-0.15400786697864532 -0.19535768032073975 0.010861228220164776
-0.15315400063991547 -0.19602780044078827 0.010861228220164776
-0.1529088318347931 -0.1974841058254242 0.010904846712946892
-0.15326206386089325 -0.1997346132993698 0.010992085561156273
-0.152993842959404 -0.20119668543338776 0.011035705916583538
-0.1527157425880432 -0.2026601880788803 0.011079324409365654
-0.1524277776479721 -0.20412510633468628 0.01112294476479292
-0.15212993323802948 -0.2055913358926773 0.011166563257575035
-0.15182216465473175 -0.20705881714820862 0.011210182681679726
-0.1515045166015625 -0.2085275799036026 0.011253802105784416
-0.14709101617336273 -0.20432181656360626 0.010992085561156273
-0.14387750625610352 -0.2017083317041397 0.010817608796060085
-0.14645560085773468 -0.2072293609380722 0.011079324409365654
-0.14555001258850098 -0.20786641538143158 0.011079324409365654
-0.14407218992710114 -0.2076786607503891 0.011035705916583538
-0.1437305212020874 -0.20912863314151764 0.011079324409365654
-0.14225441217422485 -0.20892798900604248 0.011035705916583538
-0.14022411406040192 -0.20789019763469696 0.010948467068374157
-0.1382056176662445 -0.2068387120962143 0.010861228220164776
-0.1361989676952362 -0.20577359199523926 0.010773989371955395
-0.13584759831428528 -0.20720139145851135 0.010817608796060085
-0.13548634946346283 -0.2086300402879715 0.010861228220164776
-0.134574756026268 -0.20921921730041504 0.010861228220164776
-0.13205021619796753 -0.2072766274213791 0.01073036901652813
-0.13114453852176666 -0.20785082876682281 0.01073036901652813
-0.13076581060886383 -0.20926833152770996 0.010773989371955395
-0.13090290129184723 -0.2115359902381897 0.010861228220164776
-0.12893465161323547 -0.2104014903306961 0.010773989371955395
-0.12853366136550903 -0.21181616187095642 0.010817608796060085
-0.12760822474956512 -0.2123749703168869 0.010817608796060085
-0.12616954743862152 -0.21207115054130554 0.010773989371955395
-0.12625713646411896 -0.21434126794338226 0.010861228220164776
-0.12431411445140839 -0.2131640911102295 0.010773989371955395
-0.12288329750299454 -0.212839275598526 0.01073036901652813
-0.12195345014333725 -0.21337342262268066 0.01073036901652813
-0.11954542249441147 -0.21129493415355682 0.010599511675536633
-0.12057497352361679 -0.21530120074748993 0.010773989371955395
-0.12011875212192535 -0.2166990339756012 0.010817608796060085
-0.11869155615568161 -0.2163451910018921 0.010773989371955395
-0.11774645745754242 -0.21686102449893951 0.010773989371955395
-0.11727197468280792 -0.2182527631521225 0.010817608796060085
-0.11678759008646011 -0.2196444869041443 0.010861228220164776
-0.11489775776863098 -0.21838368475437164 0.010773989371955395
-0.11209855228662491 -0.21533827483654022 0.010599511675536633
-0.11024302244186401 -0.21404899656772614 0.010512272827327251
-0.11021513491868973 -0.21630831062793732 0.010599511675536633
-0.11016961187124252 -0.21857139468193054 0.010686749592423439
-0.10698600113391876 -0.21457961201667786 0.010468653403222561
-0.10604871064424515 -0.21504437923431396 0.010468653403222561
-0.10554736107587814 -0.21640299260616302 0.010512272827327251
-0.105036161839962 -0.2177613079547882 0.010555892251431942
-0.1036549061536789 -0.21731580793857574 0.010512272827327251
-0.10313186794519424 -0.2186696082353592 0.010555892251431942
-0.10217677056789398 -0.21911752223968506 0.010555892251431942
-0.099964939057827 -0.21683943271636963 0.01042503397911787
-0.09943215548992157 -0.21818263828754425 0.010468653403222561
-0.0988895446062088 -0.2195253074169159 0.010512272827327251
-0.09793075174093246 -0.2199546992778778 0.010512272827327251
-0.09616536647081375 -0.21855102479457855 0.01042503397911787
-0.09521085023880005 -0.21896854043006897 0.01042503397911787
-0.09504325687885284 -0.22121772170066833 0.010512272827327251
-0.09368675947189331 -0.22071067988872528 0.010468653403222561
-0.09195014834403992 -0.21927471458911896 0.01038141455501318
-0.090227872133255 -0.21782784163951874 0.010294175706803799
-0.09041144698858261 -0.22099342942237854 0.01042503397911787
-0.09056908637285233 -0.22416472434997559 0.010555892251431942
-0.08884970843791962 -0.22270192205905914 0.010468653403222561
-0.08751100301742554 -0.22215794026851654 0.01042503397911787
-0.087627112865448 -0.22533102333545685 0.010555892251431942
-0.0862850695848465 -0.22477853298187256 0.010512272827327251
-0.08530347049236298 -0.2251528799533844 0.010512272827327251
-0.08467013388872147 -0.22645871341228485 0.010555892251431942
-0.08368122577667236 -0.2268259972333908 0.010555892251431942
-0.0823490247130394 -0.22625017166137695 0.010512272827327251
-0.08203624188899994 -0.22848787903785706 0.010599511675536633
-0.08103850483894348 -0.22884365916252136 0.010599511675536633
-0.08036860078573227 -0.23013825714588165 0.010643131099641323
-0.0803394615650177 -0.23332059383392334 0.010773989371955395
-0.07867836952209473 -0.23177684843540192 0.010686749592423439
-0.07734931260347366 -0.23117053508758545 0.010643131099641323
-0.07571417838335037 -0.22960823774337769 0.010555892251431942
-0.07409416139125824 -0.22803612053394318 0.010468653403222561
-0.07279389351606369 -0.22740575671195984 0.01042503397911787
-0.07210138440132141 -0.2286740094423294 0.010468653403222561
-0.07139918953180313 -0.22994054853916168 0.010512272827327251
-0.06981102377176285 -0.22833910584449768 0.01042503397911787
-0.06881404668092728 -0.228641539812088 0.01042503397911787
-0.06866700947284698 -0.23181334137916565 0.010555892251431942
-0.06793445348739624 -0.23306988179683685 0.010599511675536633
-0.06746760755777359 -0.23528476059436798 0.010686749592423439
-0.06616917252540588 -0.23461537063121796 0.010643131099641323
-0.06461087614297867 -0.23297642171382904 0.010555892251431942
-0.06385650485754013 -0.2342199981212616 0.010599511675536633
-0.06309249997138977 -0.23546139895915985 0.010643131099641323
-0.0620645135641098 -0.23573444783687592 0.010643131099641323
-0.0607852041721344 -0.23503577709197998 0.010599511675536633
-0.059759095311164856 -0.2352987676858902 0.010599511675536633
-0.05897354707121849 -0.23652663826942444 0.010643131099641323
-0.058178409934043884 -0.23775210976600647 0.010686749592423439
-0.05760693550109863 -0.23994660377502441 0.010773989371955395
-0.05587247386574745 -0.2372783124446869 0.010643131099641323
-0.05258922651410103 -0.22778542339801788 0.010206936858594418
-0.05049237981438637 -0.2231406569480896 0.00998884066939354
-0.049734506756067276 -0.22433419525623322 0.010032459162175655
-0.047695305198431015 -0.21966756880283356 0.009814362041652203
-0.0454900749027729 -0.2140102982521057 0.009552646428346634
-0.04435240477323532 -0.21322862803936005 0.009509027004241943
-0.04222651571035385 -0.2075461745262146 0.0092473104596138
-0.042295072227716446 -0.21262769401073456 0.009465407580137253
-0.04117628186941147 -0.2118295282125473 0.009421788156032562
-0.39058980345726013 -2.0572550296783447 0.09142624586820602
-0.38998469710350037 -2.104126214981079 0.09343273192644119
-0.3880889415740967 -2.1461148262023926 0.0952211245894432
-0.38514015078544617 -2.1841909885406494 0.09683503955602646
-0.38186636567115784 -2.2222816944122314 0.09844896197319031
-0.3784322142601013 -2.2613697052001953 0.10010649263858795
-0.37402182817459106 -2.296525478363037 0.10158955305814743
-0.36774882674217224 -2.321817636489868 0.1026364266872406
-0.35913437604904175 -2.3332741260528564 0.1030726209282875
-0.7659775018692017 -5.125140190124512 0.22625377774238586
-0.7427476048469543 -5.122501373291016 0.22599205374717712
-0.7196943759918213 -5.120746612548828 0.22577394545078278
-0.6965358853340149 -5.117898464202881 0.22551223635673523
-0.6738072037696838 -5.117917537689209 0.22538138926029205
-0.6510915756225586 -5.117835521697998 0.2252505123615265
-0.6281460523605347 -5.115670204162598 0.22503243386745453
-0.6051144003868103 -5.112409591674805 0.2247707098722458
-0.5822362303733826 -5.110037803649902 0.22455261647701263
-0.5594990253448486 -5.108557224273682 0.22437812387943268
-0.536577045917511 -5.104988098144531 0.22411641478538513
-0.5137969851493835 -5.102311134338379 0.22389833629131317
-0.49085894227027893 -5.097543239593506 0.22359299659729004
-0.4679722487926483 -5.092671871185303 0.2232876569032669
-0.44513750076293945 -5.087698936462402 0.22298233211040497
-0.4225204885005951 -5.084614276885986 0.22276422381401062
-0.400095671415329 -5.083421230316162 0.22263336181640625
-0.37754127383232117 -5.080137729644775 0.2224152684211731
-0.35516247153282166 -5.078746318817139 0.22228440642356873
-0.33280307054519653 -5.07725715637207 0.22215355932712555
-0.31034138798713684 -5.073675155639648 0.2219354510307312
-0.2878606915473938 -5.068996429443359 0.22167374193668365
-0.26542672514915466 -5.064218044281006 0.22141201794147491
-0.24323171377182007 -5.0633320808410645 0.22132478654384613
-0.2209623157978058 -5.060352802276611 0.22115029394626617
-0.19860586524009705 -5.054280757904053 0.22084496915340424
-0.1762717366218567 -5.047111988067627 0.2204960137605667
-0.15394292771816254 -5.03784704208374 0.2200598120689392
-0.1318291425704956 -5.033477306365967 0.21984173357486725
-0.10993077605962753 -5.037001132965088 0.21997258067131042
-0.08788210153579712 -5.0334367752075195 0.21979808807373047
-0.0658142939209938 -5.02578067779541 0.21944914758205414
-0.04383241757750511 -5.020026206970215 0.2191874235868454
-0.021928196772933006 -5.020169734954834 0.2191874235868454
-2.3592065190314315e-05 -5.027210712432861 0.21949276328086853
0.02189849689602852 -5.024166107177734 0.21936191618442535
0.043750446289777756 -5.016030788421631 0.21901296079158783
0.013438400812447071 -1.0269335508346558 0.0448407307267189
0.01804109662771225 -1.0338577032089233 0.045146070420742035
0.022464780136942863 -1.0297737121582031 0.044971588999032974
0.026957761496305466 -1.0296658277511597 0.044971588999032974
0.03138922154903412 -1.0275412797927856 0.04488435015082359
0.036081552505493164 -1.0333853960037231 0.045146070420742035
0.041374512016773224 -1.0531835556030273 0.04601845517754555
0.05241825059056282 -1.2007113695144653 0.05247412621974945
0.06872805207967758 -1.430985689163208 0.06255020201206207
0.07601682096719742 -1.4506257772445679 0.06342259049415588
0.08240222185850143 -1.451277732849121 0.06346620619297028
0.0887947604060173 -1.4519015550613403 0.06350982934236526
0.0955209881067276 -1.4574817419052124 0.06377154588699341
0.3484250605106354 -4.98307466506958 0.21809694170951843
0.37023836374282837 -4.982503890991211 0.21814057230949402
0.39173978567123413 -4.977852821350098 0.21800969541072845
0.41353854537010193 -4.9770917892456055 0.21805331110954285
0.4353381395339966 -4.9762349128723145 0.21809694170951843
0.4568639099597931 -4.972298622131348 0.21800969541072845
0.4785551130771637 -4.970257759094238 0.21800969541072845
0.5003373026847839 -4.9691162109375 0.21805331110954285
0.5220142006874084 -4.966886043548584 0.21805331110954285
0.5434636473655701 -4.9625749588012695 0.21796607971191406
0.564772367477417 -4.957178592681885 0.2178352326154709
0.5862790942192078 -4.953674793243408 0.2177916020154953
0.6081313490867615 -4.953052997589111 0.21787884831428528
0.3136708736419678 -2.465761184692383 0.10852503776550293
0.32468748092651367 -2.4663498401641846 0.10861227661371231
0.33584994077682495 -2.4678795337677 0.10874313116073608
0.3428608477115631 -2.439678907394409 0.10756541043519974
0.28512436151504517 -1.9665448665618896 0.08675896376371384
0.2745060324668884 -1.8368321657180786 0.08108844608068466
0.28084632754325867 -1.824755311012268 0.08060862869024277
0.288649320602417 -1.8225258588790894 0.08056501299142838
0.29675933718681335 -1.822235107421875 0.08060862869024277
0.30470743775367737 -1.8209228515625 0.08060862869024277
0.8384698033332825 -4.879772186279297 0.21617770195007324
0.8656518459320068 -4.909518718719482 0.21766075491905212
0.8879541158676147 -4.910610675811768 0.21787884831428528
0.8926228880882263 -4.8163161277771 0.21386587619781494
0.9132565855979919 -4.8104119300842285 0.21377861499786377
0.9527273774147034 -4.901508808135986 0.21800969541072845
0.9748846292495728 -4.901224613189697 0.2181841880083084
0.9968582391738892 -4.8998613357543945 0.2183150351047516
1.0190420150756836 -4.899377346038818 0.21848952770233154
1.0410327911376953 -4.897815704345703 0.21862037479877472
1.062605381011963 -4.894203186035156 0.2186639904975891
1.0845988988876343 -4.892446517944336 0.21879485249519348
1.106817603111267 -4.891565322875977 0.21896934509277344
1.128599762916565 -4.888636112213135 0.21905657649040222
1.1501485109329224 -4.884637832641602 0.2191001921892166
1.172616720199585 -4.884429931640625 0.21931828558444977
1.194155216217041 -4.880237579345703 0.21936191618442535
1.215437650680542 -4.874980449676514 0.21936191618442535
1.2371888160705566 -4.871567249298096 0.21944914758205414
1.2594337463378906 -4.869991779327393 0.2196236252784729
1.2821969985961914 -4.870246887207031 0.21988534927368164
1.3036936521530151 -4.865571022033691 0.21992896497249603
1.3251738548278809 -4.860800266265869 0.21997258067131042
1.3474382162094116 -4.858822822570801 0.2201470583677292
1.3691681623458862 -4.854820251464844 0.22023428976535797
1.0874321460723877 -3.792416572570801 0.17225296795368195
1.1006145477294922 -3.776125907897949 0.17172953486442566
1.1139591932296753 -3.7607505321502686 0.17124971747398376
1.1263270378112793 -3.7424609661102295 0.1706390529870987
1.110808253288269 -3.6333727836608887 0.16588453948497772
1.074806809425354 -3.461521863937378 0.15825115144252777
1.0775831937789917 -3.417733907699585 0.15646274387836456
1.0982723236083984 -3.4310779571533203 0.15729151666164398
1.142869472503662 -3.517467737197876 0.16147898137569427
1.2073252201080322 -3.6614089012145996 0.1683272272348404
1.2391393184661865 -3.703477144241333 0.17050819098949432
1.2578558921813965 -3.70560359954834 0.17085714638233185
1.2766144275665283 -3.707636833190918 0.17120610177516937
1.2977204322814941 -3.716179370880127 0.17186039686203003
1.3182580471038818 -3.722724199295044 0.1724274456501007
1.335163950920105 -3.7188174724578857 0.1725146770477295
1.3503525257110596 -3.7101399898529053 0.17238382995128632
1.3689484596252441 -3.7107737064361572 0.17268915474414825
1.3900247812271118 -3.7178664207458496 0.17329983413219452
1.4104809761047363 -3.7229766845703125 0.1738232672214508
1.4249218702316284 -3.7121236324310303 0.17360517382621765
1.406345009803772 -3.616482973098755 0.16941770911216736
1.3836660385131836 -3.5127112865448 0.16483767330646515
1.3800997734069824 -3.4593160152435303 0.16261307895183563
1.3918123245239258 -3.4449245929718018 0.16222050786018372
1.4064520597457886 -3.437894344329834 0.16217689216136932
1.422203779220581 -3.4335708618164062 0.1622641235589981
1.4379445314407349 -3.42917537689209 0.16235136985778809
1.450551152229309 -3.4173507690429688 0.16208964586257935
1.4666314125061035 -3.413742780685425 0.16222050786018372
1.4839026927947998 -3.4128081798553467 0.16248221695423126
1.4971702098846436 -3.4026432037353516 0.1623077541589737
2.1142029762268066 -4.748668193817139 0.22695167362689972
2.1369543075561523 -4.743952751159668 0.22716978192329407
2.160947561264038 -4.741856098175049 0.2275187224149704
2.184126615524292 -4.737825870513916 0.22778044641017914
2.207733631134033 -4.734588623046875 0.22808577120304108
2.233484983444214 -4.735754013061523 0.22860921919345856
2.2567076683044434 -4.731374263763428 0.2288709282875061
2.279500722885132 -4.725981712341309 0.22908903658390045
2.3031654357910156 -4.722276210784912 0.2293943613767624
2.3277249336242676 -4.720245838165283 0.2297869324684143
2.3532018661499023 -4.719879627227783 0.2302667498588562
2.375572443008423 -4.713135719299316 0.23044124245643616
2.4509944915771484 -4.810434818267822 0.23571917414665222
0.0 -0.0 0.0
2.124298334121704 -4.080812931060791 0.20086728036403656
2.1332459449768066 -4.054706573486328 0.20003852248191833
2.15889048576355 -4.0603556632995605 0.20078004896640778
2.1860437393188477 -4.068498134613037 0.2016524374485016
2.211879014968872 -4.07384729385376 0.20239396393299103
2.2382826805114746 -4.079923629760742 0.20317910611629486
2.2657501697540283 -4.087594509124756 0.20405150949954987
2.2918624877929688 -4.092487812042236 0.2047930359840393
2.320028066635132 -4.100708484649658 0.20570902526378632
2.34830904006958 -4.108761310577393 0.20662502944469452
2.3762049674987793 -4.115780353546143 0.20749744772911072
2.4057161808013916 -4.125222206115723 0.2085006833076477
2.4328196048736572 -4.130180835723877 0.20928582549095154
2.4605228900909424 -4.135839939117432 0.21011459827423096
2.490379571914673 -4.144760608673096 0.21111783385276794
2.518805980682373 -4.150936603546143 0.21199022233486176
2.547855854034424 -4.1577959060668945 0.21290622651576996
2.5764873027801514 -4.16363000869751 0.21377861499786377
2.606806516647339 -4.171835422515869 0.21478186547756195
2.6367125511169434 -4.179009437561035 0.21574148535728455
2.6656572818756104 -4.184316635131836 0.21661387383937836
2.695779323577881 -4.191131591796875 0.21757352352142334
2.729275941848755 -4.202789783477783 0.21879485249519348
2.7607343196868896 -4.210893154144287 0.21984173357486725
2.7928662300109863 -4.219634056091309 0.22093220055103302
2.8267922401428223 -4.2306671142578125 0.22215355932712555
2.8586325645446777 -4.238170623779297 0.22320041060447693
2.8900301456451416 -4.2446513175964355 0.2242036610841751
2.9232354164123535 -4.253407955169678 0.22533777356147766
2.9696693420410156 -4.280834674835205 0.227475106716156
3.015251636505127 -4.306300163269043 0.22952522337436676
3.0213277339935303 -4.275153636932373 0.22856560349464417
3.0376319885253906 -4.258676528930664 0.2283911108970642
3.0602705478668213 -4.2510576248168945 0.22869645059108734
3.081139087677002 -4.2408976554870605 0.2288709282875061
3.102567672729492 -4.231441974639893 0.22908903658390045
3.1245665550231934 -4.222682952880859 0.229350745677948
3.1447548866271973 -4.2114105224609375 0.22948160767555237
3.1655054092407227 -4.200840473175049 0.22965608537197113
3.186828374862671 -4.190965175628662 0.22987419366836548
3.2093417644500732 -4.182568073272705 0.23017951846122742
3.230618715286255 -4.172474384307861 0.23039759695529938
3.251254081726074 -4.161488056182861 0.23057208955287933
3.271855115890503 -4.150400638580322 0.2307465821504593
3.295530319213867 -4.143121719360352 0.23113913834095
3.317328453063965 -4.133378028869629 0.23140086233615875
3.3378467559814453 -4.121969699859619 0.23157532513141632
3.3608572483062744 -4.113555908203125 0.23192429542541504
3.3832221031188965 -4.104248523712158 0.23222963511943817
3.4055697917938232 -4.094824314117432 0.2325349599123001
3.4278993606567383 -4.085283279418945 0.23284029960632324
3.4502103328704834 -4.075624942779541 0.23314563930034637
3.4705560207366943 -4.063570499420166 0.23332011699676514
3.481732130050659 -4.040820121765137 0.23288391530513763
0.0 -0.0 0.0
3.1282217502593994 -3.5671164989471436 0.207148477435112
3.0563745498657227 -3.4546642303466797 0.20139071345329285
0.0 -0.0 0.0
0.0 -0.0 0.0
0.0 -0.0 0.0
0.0 -0.0 0.0
0.0 -0.0 0.0
0.0 -0.0 0.0
0.0 -0.0 0.0
3.005218029022217 -3.166896104812622 0.19061674177646637
3.021770715713501 -3.156639814376831 0.19079120457172394
0.0 -0.0 0.0
0.0 -0.0 0.0
0.0 -0.0 0.0
0.0 -0.0 0.0
0.0 -0.0 0.0
0.0 -0.0 0.0
0.0 -0.0 0.0
0.0 -0.0 0.0
0.0 -0.0 0.0
0.0 -0.0 0.0
0.0 -0.0 0.0
0.0 -0.0 0.0
0.0 -0.0 0.0
0.0 -0.0 0.0
0.0 -0.0 0.0
3.4453649520874023 -3.129608392715454 0.20322273671627045
3.472350835800171 -3.1265780925750732 0.20400787889957428
0.0 -0.0 0.0
1.9057587385177612 -1.6861051321029663 0.11109858751296997
1.9078397750854492 -1.673162579536438 0.11079324781894684
1.90758216381073 -1.658267855644226 0.11035706102848053
1.9102585315704346 -1.6460158824920654 0.11009533703327179
1.9212206602096558 -1.6409093141555786 0.11031343042850494
1.9352246522903442 -1.6383205652236938 0.11070600897073746
1.9469465017318726 -1.6337140798568726 0.1109677255153656
1.950984001159668 -1.6226481199264526 0.11079324781894684
4.095706939697266 -3.3763067722320557 0.23174981772899628
4.104210376739502 -3.353347063064575 0.23140086233615875
4.114144802093506 -3.331634998321533 0.23113913834095
4.124746799468994 -3.310525417327881 0.23092104494571686
4.133679389953613 -3.2881429195404053 0.23061570525169373
4.143279552459717 -3.266364097595215 0.23035398125648499
4.154343128204346 -3.2457945346832275 0.23017951846122742
1.8500183820724487 -1.4324665069580078 0.10215660184621811
1.854665994644165 -1.4231643676757812 0.10206937044858932
1.8521102666854858 -1.408406376838684 0.10158955305814743
1.852652907371521 -1.3961029052734375 0.1012842208147049
1.861128330230713 -1.3897993564605713 0.10141507536172867
1.8719931840896606 -1.3852310180664062 0.10167679190635681
1.894938588142395 -1.3894555568695068 0.10259279608726501
1.9858484268188477 -1.4428337812423706 0.10717283189296722
2.1729323863983154 -1.564320683479309 0.11689995974302292
2.213897466659546 -1.5791914463043213 0.11873197555541992
2.2305572032928467 -1.5764358043670654 0.1192554160952568
2.2374143600463867 -1.5666882991790771 0.1192554160952568
5.856009483337402 -4.062546253204346 0.3111807107925415
5.897556304931641 -4.053366661071777 0.31244567036628723
5.9383087158203125 -4.043339252471924 0.31366702914237976
5.980741500854492 -4.034150123596191 0.3149755895137787
6.024868488311768 -4.025777816772461 0.3163714110851288
6.071534633636475 -4.01875114440918 0.31789812445640564
6.11741828918457 -4.010845184326172 0.3193811774253845
6.159996032714844 -4.000438690185547 0.32068973779678345
2.140913486480713 -1.3771132230758667 0.11114220321178436
2.1426889896392822 -1.3650747537612915 0.11092410981655121
2.1393306255340576 -1.3498482704162598 0.11044429242610931
2.1401166915893555 -1.3373243808746338 0.11018257588148117
2.1467812061309814 -1.328499436378479 0.11022619903087616
2.159371852874756 -1.3232958316802979 0.11057514697313309
2.1753742694854736 -1.3200807571411133 0.11109858751296997
2.187107801437378 -1.3141783475875854 0.1114039197564125
6.361242294311523 -3.784632444381714 0.3231760561466217
9.112468719482422 -5.367784023284912 0.46175485849380493
6.990365028381348 -4.0767598152160645 0.3533170521259308
7.0089521408081055 -4.046719551086426 0.35336068272590637
7.010062217712402 -4.006679534912109 0.35253190994262695
10.75772762298584 -6.086581230163574 0.5396590828895569
10.820792198181152 -6.060087203979492 0.5414910912513733
6.761326313018799 -3.7479591369628906 0.3375268280506134
5.52334451675415 -3.030287742614746 0.2750638723373413
5.5488057136535645 -3.0128328800201416 0.2756745219230652
5.584779739379883 -3.000887870788574 0.27680864930152893
5.6260480880737305 -2.9915003776550293 0.27820447087287903
5.664687633514404 -2.9804139137268066 0.27946943044662476
5.704223155975342 -2.969508171081543 0.2807779908180237
5.7419939041137695 -2.9573991298675537 0.2819993495941162
5.782438278198242 -2.9463775157928467 0.2833515405654907
5.822895050048828 -2.935058832168579 0.2847037613391876
5.8651509284973145 -2.924334764480591 0.2861431837081909
5.904735088348389 -2.9119715690612793 0.28745177388191223
5.9479146003723145 -2.9010705947875977 0.2889348566532135
5.993810176849365 -2.8911497592926025 0.29054874181747437
6.0343217849731445 -2.878302812576294 0.29190096259117126
6.073930740356445 -2.8647308349609375 0.2932095229625702
6.115346431732178 -2.851712465286255 0.2946053445339203
6.160393238067627 -2.840059995651245 0.29617565870285034
6.206362724304199 -2.8284823894500732 0.2977895736694336
6.25234842300415 -2.8165576457977295 0.29940348863601685
6.301998138427734 -2.80591082572937 0.30119186639785767
6.349843978881836 -2.794079065322876 0.3028930425643921
6.3958740234375 -2.7810862064361572 0.30450695753097534
6.437321186065674 -2.765772581100464 0.30590277910232544
6.464041709899902 -2.743903875350952 0.3066006898880005
6.480559349060059 -2.717604875564575 0.30681878328323364
6.500661849975586 -2.6927433013916016 0.30721133947372437
6.517897605895996 -2.666623115539551 0.3074730634689331
6.538733959197998 -2.6419007778167725 0.3079092800617218
6.55762243270874 -2.6163065433502197 0.3082582354545593
6.575482368469238 -2.5902318954467773 0.30856356024742126
6.592308521270752 -2.5636889934539795 0.30882528424263
6.610893249511719 -2.537764549255371 0.30917423963546753
6.627508640289307 -2.511018753051758 0.3094359338283539
6.645888328552246 -2.4848759174346924 0.3097848892211914
6.665103435516357 -2.4589664936065674 0.3101774752140045
6.683279037475586 -2.4325947761535645 0.31052643060684204
6.703232765197754 -2.4067864418029785 0.31096261739730835
6.72026252746582 -2.379849672317505 0.3112679421901703
6.739071846008301 -2.353468894958496 0.3116605281829834
6.757777690887451 -2.3269691467285156 0.3120531141757965
6.775434970855713 -2.300029993057251 0.31240206956863403
6.793932914733887 -2.2732977867126465 0.31279465556144714
6.812326431274414 -2.246448040008545 0.31318721175193787
6.8315653800964355 -2.219789743423462 0.31362342834472656
6.8497490882873535 -2.1927013397216797 0.3140159845352173
6.87068510055542 -2.166398048400879 0.31453943252563477
6.889613151550293 -2.1393611431121826 0.3149755895137787
6.9093918800354 -2.112492561340332 0.3154554069042206
6.926196575164795 -2.084627866744995 0.3158043622970581
6.94193172454834 -2.056373119354248 0.31610971689224243
6.954675197601318 -2.027182102203369 0.3162841796875
6.9701762199401855 -1.998745083808899 0.3165895342826843
8.87594223022461 -2.5033750534057617 0.4026505947113037
8.97246265411377 -2.4883854389190674 0.4065327048301697
9.132634162902832 -2.4899444580078125 0.413293719291687
9.258247375488281 -2.4808435440063477 0.4184844195842743
3.7137765884399414 -0.9777973294258118 0.16767293214797974
3.721876621246338 -0.9625842571258545 0.1678474098443985
3.7211997509002686 -0.9451057314872742 0.16762931644916534
3.7291653156280518 -0.9298267364501953 0.1678037792444229
3.7390096187591553 -0.9149712324142456 0.16806550323963165
9.268528938293457 -2.2252790927886963 0.416172593832016
9.181877136230469 -2.1621463298797607 0.41185426712036133
9.131844520568848 -2.1083526611328125 0.4091934859752655
9.121468544006348 -2.064077615737915 0.4083210825920105
9.081620216369629 -2.013446092605591 0.40614014863967896
9.005379676818848 -1.9553577899932861 0.402345210313797
8.998190879821777 -1.9127223491668701 0.40164732933044434
8.801047325134277 -1.8307160139083862 0.3924872577190399
8.713990211486816 -1.7729756832122803 0.38825616240501404
8.644235610961914 -1.719538688659668 0.3848102390766144
8.59183406829834 -1.6701760292053223 0.38214948773384094
8.61572551727295 -1.6358393430709839 0.3828909993171692
8.665019989013672 -1.6060595512390137 0.3847666084766388
8.720118522644043 -1.5769476890563965 0.3869040012359619
8.7200288772583 -1.5376695394515991 0.3865986764431
8.667577743530273 -1.489454746246338 0.38398149609565735
4.213335990905762 -0.7051154971122742 0.18651649355888367
4.209470272064209 -0.6856004595756531 0.18621116876602173
4.200580596923828 -0.665351152420044 0.18568773567676544
4.204431533813477 -0.6471683979034424 0.18573136627674103
4.2151198387146 -0.6299983859062195 0.18608032166957855
8.63043212890625 -1.2514441013336182 0.38075363636016846
8.625917434692383 -1.2123844623565674 0.38031747937202454
8.619246482849121 -1.1731185913085938 0.37979403138160706
8.596549034118652 -1.1318473815917969 0.3785727024078369
8.566718101501465 -1.0899139642715454 0.37704598903656006
8.575359344482422 -1.053011417388916 0.37722048163414
8.613603591918945 -1.0195772647857666 0.3787035346031189
8.638815879821777 -0.9843589663505554 0.3796195387840271
8.823775291442871 -0.9664526581764221 0.387558251619339
9.084249496459961 -0.9548879265785217 0.39881208539009094
9.104233741760254 -0.9168431162834167 0.399509996175766
9.102181434631348 -0.8765352368354797 0.39924827218055725
9.090995788574219 -0.835439920425415 0.3985939919948578
9.021902084350586 -0.7894080877304077 0.3954097628593445
8.894834518432617 -0.7391963005065918 0.3896956145763397
8.651970863342285 -0.681014895439148 0.37892162799835205
3.274839162826538 -0.24339662492275238 0.1433769315481186
3.297795534133911 -0.23063859343528748 0.14433656632900238
3.2977733612060547 -0.21618174016475677 0.1442929357290268
3.2887134552001953 -0.20118047297000885 0.14385674893856049
3.2945473194122314 -0.18711212277412415 0.14407484233379364
3.307304620742798 -0.17336277663707733 0.14459827542304993
3.313019037246704 -0.15917004644870758 0.14481636881828308
5.463582992553711 -0.23860175907611847 0.23877254128456116
5.6093220710754395 -0.22044892609119415 0.245097354054451
5.600245952606201 -0.19562283158302307 0.2446611523628235
8.599787712097168 -0.2628362476825714 0.37565016746520996
8.724691390991211 -0.22855432331562042 0.3810589611530304
8.804512977600098 -0.19220620393753052 0.38450491428375244
8.990062713623047 -0.15701508522033691 0.3925744891166687
9.010642051696777 -0.11804892122745514 0.3934468924999237
9.008073806762695 -0.07870539277791977 0.39331603050231934
9.000340461730957 -0.03936467692255974 0.3929671049118042
8.990435600280762 -9.293187758885324e-05 0.3925308883190155
8.981359481811523 0.039095982909202576 0.3921383321285248
8.967117309570312 0.07816214859485626 0.3915276527404785
3.7740814685821533 0.049366410821676254 0.16479404270648956
3.7798235416412354 0.06593798100948334 0.1650557667016983
3.774505853652954 0.08232097327709198 0.16483767330646515
3.7761080265045166 0.09884180128574371 0.16492490470409393
3.7916181087493896 0.11580517143011093 0.16562281548976898
5.443495273590088 0.1900346875190735 0.23781290650367737
5.541443347930908 0.21766653656959534 0.24213121831417084
0.0 0.0 0.0
0.0 0.0 0.0
0.0 0.0 0.0
0.0 0.0 0.0
0.0 0.0 0.0
0.0 0.0 0.0
0.0 0.0 0.0
8.837198257446289 0.6566253900527954 0.3869040012359619
8.890023231506348 0.6995674967765808 0.3893466591835022
8.869959831237793 0.7369444966316223 0.38860514760017395
8.872631072998047 0.7761621475219727 0.3888668417930603
8.871150970458984 0.8150516748428345 0.3889541029930115
6.7503252029418945 0.6499118804931641 0.29608839750289917
6.7523956298828125 0.6798598766326904 0.2963064908981323
6.749364852905273 0.7093161940574646 0.2963064908981323
6.746205806732178 0.7387589812278748 0.2963064908981323
6.739940166473389 0.7678484916687012 0.29617565870285034
6.734540939331055 0.7970147132873535 0.29608839750289917
6.7270331382751465 0.8259050846099854 0.2959139347076416
6.718410015106201 0.854619026184082 0.29569584131240845
6.715607643127441 0.8840557932853699 0.29573944211006165
6.709706783294678 0.9130802750587463 0.29565221071243286
6.70466947555542 0.9422091245651245 0.29560860991477966
6.700494289398193 0.9714547395706177 0.29560860991477966
6.693227291107178 1.0002388954162598 0.2954777479171753
6.686824798583984 1.0291301012039185 0.2953904867172241
6.681283950805664 1.058140754699707 0.2953468859195709
6.672658920288086 1.0866408348083496 0.29517239332199097
6.66489839553833 1.115250825881958 0.295041561126709
6.660953044891357 1.144490361213684 0.2950851619243622
6.654911994934082 1.1733698844909668 0.295041561126709
6.651695251464844 1.202751636505127 0.29512879252433777
6.645401477813721 1.231581687927246 0.2950851619243622
6.640945911407471 1.2607522010803223 0.29512879252433777
6.634400844573975 1.289526104927063 0.2950851619243622
6.625771522521973 1.3178770542144775 0.2949542999267578
6.620937347412109 1.3469741344451904 0.2949979305267334
6.616953372955322 1.3762574195861816 0.2950851619243622
6.610885143280029 1.405116081237793 0.2950851619243622
6.603714942932129 1.4337362051010132 0.295041561126709
6.598371505737305 1.4627528190612793 0.2950851619243622
6.589977741241455 1.4910887479782104 0.2949979305267334
6.583408832550049 1.5198286771774292 0.2949979305267334
6.576714992523193 1.5485397577285767 0.2949979305267334
6.566009521484375 1.5762883424758911 0.29482343792915344
6.539660930633545 1.6001739501953125 0.2939510643482208
6.510321140289307 1.623134732246399 0.29294782876968384
6.482841968536377 1.6463615894317627 0.29203179478645325
6.45721960067749 1.6698800325393677 0.29120302200317383
6.430549144744873 1.692952036857605 0.2903306484222412
6.401871204376221 1.715306043624878 0.2893710136413574
6.377939224243164 1.7387558221817017 0.2886295020580292
6.349112510681152 1.7606948614120483 0.2876698672771454
6.3231000900268555 1.7832289934158325 0.28684109449386597
6.297972679138184 1.8058451414108276 0.28605595231056213
6.271810054779053 1.8279966115951538 0.2852271795272827
6.245573997497559 1.8499541282653809 0.2843984365463257
6.21830940246582 1.871429681777954 0.2835260331630707
6.192887306213379 1.8932867050170898 0.28274089097976685
6.166439056396484 1.9146615266799927 0.2819121181964874
6.1418280601501465 1.9364423751831055 0.2811705768108368
6.117145538330078 1.9580451250076294 0.28042906522750854
6.090490818023682 1.9788520336151123 0.2796002924442291
6.068515300750732 2.001027822494507 0.27898961305618286
6.041725158691406 2.0214648246765137 0.27816084027290344
6.0120344161987305 2.0407426357269287 0.27720123529434204
5.987014293670654 2.0614264011383057 0.2764596939086914
5.960984706878662 2.08160138130188 0.2756745219230652
5.934894561767578 2.101588726043701 0.27488940954208374
5.911563396453857 2.1224005222320557 0.2742350995540619
5.8477959632873535 2.128356695175171 0.27170515060424805
0.0 0.0 0.0
5.036391258239746 1.8829715251922607 0.23475955426692963
4.975809097290039 1.8851078748703003 0.23231686651706696
7.458765983581543 2.863065719604492 0.34882423281669617
7.371712684631348 2.866616725921631 0.3453347086906433
7.128609657287598 2.807950973510742 0.33451709151268005
7.0244245529174805 2.8023791313171387 0.3301987648010254
6.898195266723633 2.786970853805542 0.32483360171318054
8.522622108459473 3.4865965843200684 0.40203988552093506
6.497949123382568 2.6914620399475098 0.3070805072784424
6.451132774353027 2.705108165740967 0.30542296171188354
6.435589790344238 2.7316694259643555 0.3052484691143036
6.393317699432373 2.7467100620269775 0.3038090467453003
6.159554481506348 2.6781768798828125 0.2932531535625458
6.017958641052246 2.647892951965332 0.2870591878890991
5.978967189788818 2.661935806274414 0.2857505977153778
7.176968574523926 3.2329020500183105 0.3436771631240845
5.827327251434326 2.655595541000366 0.2796002924442291
5.7911882400512695 2.669703960418701 0.2784225642681122
0.0 0.0 0.0
5.447795867919922 2.5692808628082275 0.2629812955856323
4.286827087402344 2.04465913772583 0.20736657083034515
4.292262554168701 2.070288896560669 0.2080644965171814
6.547800540924072 3.1934945583343506 0.3180725872516632
5.05626106262207 2.4934093952178955 0.24614420533180237
5.060533046722412 2.5230257511138916 0.246885746717453
5.055721282958984 2.548229932785034 0.24719107151031494
3.9238386154174805 1.99924635887146 0.19227425754070282
3.905308485031128 2.0113167762756348 0.19179445505142212
0.0 0.0 0.0
4.655049800872803 2.4490809440612793 0.22965608537197113
3.5496184825897217 1.8873202800750732 0.17552441358566284
3.5395896434783936 1.9018447399139404 0.17543718218803406
0.0 0.0 0.0
5.497130393981934 3.0157580375671387 0.27375528216362
