# .PCD v0.7 - Point Cloud Data file format
VERSION 0.7
FIELDS x y z
SIZE 4 4 4
TYPE F F F
COUNT 1 1 1
WIDTH 831
HEIGHT 1
VIEWPOINT 0 0 0 1 0 0 0
POINTS 831
DATA ascii
1.2740552425384521 1.645423412322998 0.09085918962955475
1.2619980573654175 1.6446260213851929 0.09051022678613663
1.2566242218017578 1.6525025367736816 0.090641088783741
1.243389368057251 1.6499911546707153 0.09020489454269409
0.0 0.0 0.0
3.6737563610076904 4.964668273925781 0.2696550488471985
3.6491055488586426 4.976622581481934 0.2694369852542877
3.61326265335083 4.973099231719971 0.26839008927345276
3.5757691860198975 4.966926097869873 0.2672123908996582
0.0 0.0 0.0
0.0 0.0 0.0
2.9477219581604004 4.2096710205078125 0.22437812387943268
2.5039360523223877 3.609312057495117 0.19179445505142212
2.5074033737182617 3.648196220397949 0.193277508020401
2.168712854385376 3.1850950717926025 0.16823998093605042
2.1274197101593018 3.1539435386657715 0.16610263288021088
2.095876455307007 3.1366147994995117 0.16470681130886078
1.7469056844711304 2.639214038848877 0.1381862312555313
1.7046977281570435 2.6000239849090576 0.13574354350566864
1.6808218955993652 2.5881664752960205 0.13474029302597046
3.148780107498169 4.8951897621154785 0.25412654876708984
3.1241698265075684 4.903826713562012 0.2538648247718811
1.3237305879592896 2.097926616668701 0.10830693691968918
1.3140347003936768 2.1028354167938232 0.10826332122087479
1.3053725957870483 2.109398365020752 0.10830693691968918
2.5380234718322754 4.141558647155762 0.21207748353481293
2.476910352706909 4.0817036628723145 0.2084570676088333
2.1992247104644775 3.660017967224121 0.18642926216125488
0.0 0.0 0.0
1.2007333040237427 2.0383803844451904 0.10329070687294006
1.197364330291748 2.053093433380127 0.10377053171396255
1.1843982934951782 2.0513765811920166 0.10342156887054443
2.7752392292022705 4.855515003204346 0.2441813349723816
1.7543516159057617 3.1007118225097656 0.15554673969745636
1.7412937879562378 3.109208583831787 0.15559035539627075
2.685774087905884 4.8451151847839355 0.2418695092201233
0.8649764657020569 1.5765949487686157 0.07851489633321762
0.8571356534957886 1.578598141670227 0.07842766493558884
0.8544955253601074 1.5902433395385742 0.07882023602724075
0.8480177521705627 1.5948388576507568 0.07886385172605515
2.1407723426818848 4.068808555603027 0.20073643326759338
2.1151559352874756 4.063045978546143 0.19999489188194275
1.324317455291748 2.571237802505493 0.1262781322002411
1.3067357540130615 2.5645294189453125 0.12566745281219482
1.2779960632324219 2.535413980484009 0.12396630644798279
1.2606801986694336 2.5284488201141357 0.12335562705993652
1.2474265098571777 2.5294456481933594 0.12313754111528397
2.3369863033294678 4.791369438171387 0.23275306820869446
1.6832220554351807 3.489561080932617 0.1691560000181198
1.673141360282898 3.507692575454712 0.1696794182062149
2.2169618606567383 4.700468063354492 0.22690805792808533
2.185453414916992 4.686554908752441 0.22577394545078278
2.189661979675293 4.749575138092041 0.22834749519824982
2.1751320362091064 4.772720813751221 0.22900180518627167
2.1481313705444336 4.768502712249756 0.22834749519824982
0.9122825264930725 2.048945426940918 0.09792552888393402
0.899712324142456 2.0446763038635254 0.09753295034170151
0.8903838992118835 2.047666549682617 0.09748933464288712
0.0 0.0 0.0
1.2804195880889893 3.0163650512695312 0.14307159185409546
1.2564281225204468 2.996126174926758 0.14185024797916412
0.6404058933258057 1.5460166931152344 0.0730624794960022
0.6321409344673157 1.5450977087020874 0.07288800179958344
0.6257674098014832 1.5487674474716187 0.07293161749839783
0.6208548545837402 1.5561226606369019 0.07314971089363098
0.610763669013977 1.5504511594772339 0.07275713980197906
1.8329803943634033 4.713308334350586 0.22080135345458984
1.799149990081787 4.686751842498779 0.2191874235868454
1.3312691450119019 3.5136778354644775 0.16405251622200012
1.3141759634017944 3.5147743225097656 0.16383442282676697
1.7373026609420776 4.708962917327881 0.219143807888031
0.9150933027267456 2.5140891075134277 0.11681272834539413
0.905127763748169 2.520878791809082 0.11694358289241791
0.891785204410553 2.518211841583252 0.11663824319839478
0.8699192404747009 2.4909539222717285 0.11519879847764969
0.850910484790802 2.4711105823516846 0.11410832405090332
0.8391567468643188 2.471961736679077 0.11397746205329895
0.8305820226669312 2.482231616973877 0.11428280174732208
0.0 0.0 0.0
0.0 0.0 0.0
0.0 0.0 0.0
0.0 0.0 0.0
1.4467008113861084 4.658904075622559 0.21299348771572113
0.6148853302001953 2.011096954345703 0.09181880950927734
0.605528712272644 2.011847496032715 0.09173157811164856
0.5956096649169922 2.010638952255249 0.0915571004152298
0.5840351581573486 2.003627061843872 0.0911208987236023
0.5703302621841431 1.9888702630996704 0.09033575654029846
0.5562228560447693 1.9721089601516724 0.08946336805820465
0.5460106730461121 1.9687408208847046 0.08920165151357651
0.5382037162780762 1.9739960432052612 0.08933250606060028
0.5277753472328186 1.9695706367492676 0.08902717381715775
0.9055700898170471 3.4393937587738037 0.1552850306034088
0.8910547494888306 3.445246934890747 0.1553722620010376
1.1758060455322266 4.629465579986572 0.2085442990064621
0.8454867005348206 3.3908519744873047 0.1525806188583374
0.832345724105835 3.401301622390747 0.15288595855236053
0.8170305490493774 3.4029581546783447 0.15279872715473175
0.5802770853042603 2.4641871452331543 0.1105315312743187
0.5708680748939514 2.472536087036133 0.11079324781894684
0.5569872260093689 2.4613616466522217 0.11018257588148117
0.5412685871124268 2.4413352012634277 0.10917932540178299
0.5276433825492859 2.4300055503845215 0.10856866091489792
0.5170355439186096 2.4322845935821533 0.10856866091489792
0.5100802183151245 2.4521236419677734 0.10935381054878235
0.5563451647758484 2.73431658744812 0.12182895839214325
0.5831981301307678 2.9317080974578857 0.13050921261310577
0.5707820057868958 2.9361863136291504 0.13059645891189575
0.8337795734405518 4.391287326812744 0.1951531320810318
0.8406481146812439 4.5353546142578125 0.20139071345329285
0.8283183574676514 4.580270290374756 0.20322273671627045
0.5099095106124878 2.891587972640991 0.12819738686084747
0.4950881600379944 2.8809850215911865 0.1276303380727768
0.7641711831092834 4.566086769104004 0.20213225483894348
0.7445619702339172 4.571349143981934 0.20221948623657227
0.723045825958252 4.564687252044678 0.20178329944610596
0.22403840720653534 1.4554550647735596 0.0642949789762497
0.21975326538085938 1.4702516794204712 0.06490565091371536
0.2137661576271057 1.4741626977920532 0.06503650546073914
0.20705382525920868 1.4731026887893677 0.06494927406311035
0.2006242871284485 1.473992109298706 0.06494927406311035
0.0 0.0 0.0
0.5748622417449951 4.518237113952637 0.1988607794046402
0.54759281873703 4.459223747253418 0.19615639746189117
0.5251947045326233 4.436767578125 0.19506590068340302
0.5139747858047485 4.510485649108887 0.19820649921894073
0.4970088303089142 4.537513256072998 0.1992969959974289
0.4764745235443115 4.532683372497559 0.19899165630340576
0.19410938024520874 1.9274048805236816 0.0845780000090599
0.18608078360557556 1.9322112798690796 0.08475247025489807
0.17746537923812866 1.931015133857727 0.08466523140668869
0.16834141314029694 1.9238090515136719 0.08431627601385117
0.3750821053981781 4.513125896453857 0.19772668182849884
0.3552297055721283 4.512727737426758 0.19763945043087006
0.1403312087059021 1.8879883289337158 0.08265874534845352
0.13195264339447021 1.886589527130127 0.08257150650024414
0.12679140269756317 1.9340019226074219 0.0846216157078743
0.13604332506656647 2.223720073699951 0.09727123379707336
0.15240034461021423 2.683115243911743 0.11733615398406982
0.14257454872131348 2.7196710109710693 0.11890645325183868
0.11569873988628387 2.4079253673553467 0.10525358468294144
0.10261916369199753 2.349519729614258 0.10268004238605499
0.09476009011268616 2.4108400344848633 0.10534083098173141
0.09508830308914185 2.721745014190674 0.11890645325183868
0.08617260307073593 2.8189966678619385 0.12313754111528397
0.07392402738332748 2.821343183517456 0.12322477251291275
0.09415338933467865 4.311863422393799 0.18830491602420807
0.07779928296804428 4.453077793121338 0.19445523619651794
0.05861726030707359 4.472354888916016 0.19528400897979736
0.01311861164867878 1.5005131959915161 0.06551632285118103
0.006571320816874504 1.5005561113357544 0.06551632285118103
2.3840926587581635e-05 1.4965742826461792 0.06534184515476227
-0.006480080075562 1.4905660152435303 0.06508012861013412
-0.012957674451172352 1.487526535987854 0.06494927406311035
-0.05810905992984772 4.444386005401611 0.19406266510486603
-0.07765740156173706 4.453080177307129 0.19445523619651794
-0.09713027626276016 4.4546966552734375 0.19454246759414673
-0.1165403202176094 4.4532318115234375 0.19449885189533234
-0.1354820430278778 4.436703681945801 0.19380095601081848
-0.0 0.0 0.0
-0.07598186284303665 1.9346641302108765 0.08453437685966492
-0.08450975269079208 1.9363102912902832 0.0846216157078743
-0.093101367354393 1.938916802406311 0.08475247025489807
-0.10553304105997086 2.0143158435821533 0.08806754648685455
-0.13362939655780792 2.35396409034729 0.10294175893068314
-0.0 0.0 0.0
-0.154231458902359 2.3537051677703857 0.10298537462949753
-0.16422118246555328 2.3490233421325684 0.10281089693307877
-0.173358753323555 2.3333399295806885 0.10215660184621811
-0.16770777106285095 2.131375312805176 0.09334549307823181
-0.15955351293087006 1.9205479621887207 0.084141805768013
-0.16532018780708313 1.889975905418396 0.08283321559429169
-0.17292533814907074 1.8822726011276245 0.08252788335084915
-0.42325836420059204 4.396465301513672 0.1928413063287735
-0.44313788414001465 4.4015350341796875 0.19314664602279663
-0.4624432921409607 4.400553226470947 0.19319027662277222
-0.48153096437454224 4.397500038146973 0.19314664602279663
-0.5003746747970581 4.3923797607421875 0.19301579892635345
-0.5196525454521179 4.391146659851074 0.19305941462516785
-0.5395378470420837 4.394786834716797 0.1933211237192154
-0.558456301689148 4.390408992767334 0.1932338923215866
-0.5773468017578125 4.38594913482666 0.19314664602279663
-0.5963437557220459 4.38239860534668 0.19310303032398224
-0.6153206825256348 4.37876558303833 0.19305941462516785
-0.630693793296814 4.350332736968994 0.1919253021478653
-0.6053738594055176 4.051115989685059 0.17883950471878052
-0.6216765642166138 4.039548873901367 0.1784469187259674
-0.0 0.0 0.0
-0.5302119255065918 3.2559690475463867 0.14403121173381805
-0.5450731515884399 3.257566213607788 0.144205704331398
-0.5596199631690979 3.2571258544921875 0.1442929357290268
-0.5717447996139526 3.242846727371216 0.1437695026397705
-0.7732452750205994 4.276516437530518 0.18974435329437256
-0.5199217200279236 2.8055124282836914 0.12457697838544846
-0.5317853689193726 2.8012540340423584 0.12448973208665848
-0.5428593158721924 2.793022632598877 0.12422801554203033
-0.834315299987793 4.194759845733643 0.18673460185527802
-0.8514153361320496 4.185205459594727 0.18647287786006927
-0.8700754046440125 4.183407306671143 0.18656013906002045
-0.8874896764755249 4.175662040710449 0.1863856464624405
-0.04790273681282997 0.22064486145973206 0.009857981465756893
-0.04843258112668991 0.21848300099372864 0.009770742617547512
-0.04563742130994797 0.2017045021057129 0.009029214270412922
-0.047640684992074966 0.20637068152427673 0.0092473104596138
-0.0503724068403244 0.21394050121307373 0.009596265852451324
-0.0499061718583107 0.20788998901844025 0.009334549307823181
-0.05176255479454994 0.21155193448066711 0.009509027004241943
-0.05341014638543129 0.2142322063446045 0.009639885276556015
-0.05213127285242081 0.2052823007106781 0.0092473104596138
-0.05452723056077957 0.21085627377033234 0.009509027004241943
-0.05849884822964668 0.2222098857164383 0.010032459162175655
-0.061794865876436234 0.23063763976097107 0.01042503397911787
-0.06280061602592468 0.2303658127784729 0.01042503397911787
-0.063004270195961 0.227201446890831 0.010294175706803799
-0.0637238472700119 0.225962832570076 0.010250556282699108
-0.06360774487257004 0.2218412309885025 0.010076078586280346
-0.06429554522037506 0.22060243785381317 0.010032459162175655
-0.06639240682125092 0.22415144741535187 0.010206936858594418
-0.0676577165722847 0.22481629252433777 0.010250556282699108
-0.06863800436258316 0.22451893985271454 0.010250556282699108
-0.06991323828697205 0.22517143189907074 0.010294175706803799
-0.07029425352811813 0.22295860946178436 0.010206936858594418
-0.07248464226722717 0.22645574808120728 0.01038141455501318
-0.0734720379114151 0.22613731026649475 0.01038141455501318
-0.07383234798908234 0.22391699254512787 0.010294175706803799
-0.07480865716934204 0.22359271347522736 0.010294175706803799
-0.07642577588558197 0.22515623271465302 0.01038141455501318
-0.07708223164081573 0.2238760143518448 0.01033779513090849
-0.0773996114730835 0.22165115177631378 0.010250556282699108
-0.07869947701692581 0.22225306928157806 0.010294175706803799
-0.07966847717761993 0.2219075709581375 0.010294175706803799
-0.07995261251926422 0.21968023478984833 0.010206936858594418
-0.08160191774368286 0.22120389342308044 0.010294175706803799
-0.08221646398305893 0.21990995109081268 0.010250556282699108
-0.08317520469427109 0.21954911947250366 0.010250556282699108
-0.08377435803413391 0.21825142204761505 0.010206936858594418
-0.08472585678100586 0.21788381040096283 0.010206936858594418
-0.08640801161527634 0.21937112510204315 0.010294175706803799
-0.08699417859315872 0.218064084649086 0.010250556282699108
-0.08906751871109009 0.22046133875846863 0.01038141455501318
-0.08965034037828445 0.2191459685564041 0.01033779513090849
-0.09213489294052124 0.22244474291801453 0.010512272827327251
-0.09349093586206436 0.2229619324207306 0.010555892251431942
-0.09368220716714859 0.22071261703968048 0.010468653403222561
-0.09306693822145462 0.21663005650043488 0.010294175706803799
-0.09321456402540207 0.21438953280448914 0.010206936858594418
-0.09495381265878677 0.2158096581697464 0.010294175706803799
-0.09548822045326233 0.21448060870170593 0.010250556282699108
-0.09847470372915268 0.21861644089221954 0.010468653403222561
-0.09901337325572968 0.21727558970451355 0.01042503397911787
-0.09828750789165497 0.21321232616901398 0.010250556282699108
-0.10006128251552582 0.2145923525094986 0.01033779513090849
-0.10142279416322708 0.21505729854106903 0.01038141455501318
-0.10279028117656708 0.21551446616649628 0.01042503397911787
-0.10416366904973984 0.21596376597881317 0.010468653403222561
-0.10554292052984238 0.21640515327453613 0.010512272827327251
-0.10648615658283234 0.21594257652759552 0.010512272827327251
-0.10787311941385269 0.21636998653411865 0.010555892251431942
-0.10926582664251328 0.2167893797159195 0.010599511675536633
-0.10885007679462433 0.21364006400108337 0.010468653403222561
-0.11023863404989243 0.2140512615442276 0.010512272827327251
-0.11209413409233093 0.21534056961536407 0.010599511675536633
-0.1088462695479393 0.20689204335212708 0.010206936858594418
-0.10927894711494446 0.20553302764892578 0.010163317434489727
-0.11159326881170273 0.20769444108009338 0.010294175706803799
-0.11249843239784241 0.20720554888248444 0.010294175706803799
-0.11628454923629761 0.21196812391281128 0.010555892251431942
-0.12011431157588959 0.21670149266719818 0.010817608796060085
-0.11764171719551086 0.21007362008094788 0.010512272827327251
-0.112653948366642 0.19912387430667877 0.00998884066939354
-0.11451316624879837 0.20036520063877106 0.010076078586280346
-0.11638534069061279 0.20159406960010529 0.010163317434489727
-0.11776712536811829 0.20194734632968903 0.010206936858594418
-0.11661899089813232 0.19798828661441803 0.010032459162175655
-0.1174817606806755 0.1974775642156601 0.010032459162175655
-0.11834229528903961 0.19696307182312012 0.010032459162175655
-0.11868231743574142 0.19559073448181152 0.00998884066939354
-0.12162254750728607 0.19847838580608368 0.010163317434489727
-0.1235387995839119 0.19964493811130524 0.010250556282699108
-0.12123233824968338 0.19402049481868744 0.00998884066939354
-0.11941229552030563 0.18926499783992767 0.009770742617547512
-0.1186266615986824 0.1862143725156784 0.009639885276556015
-0.11889759451150894 0.18485474586486816 0.009596265852451324
-0.1251440793275833 0.19271302223205566 0.010032459162175655
-0.12707926332950592 0.19383616745471954 0.010119698010385036
-0.12075567245483398 0.18244950473308563 0.009552646428346634
-0.1232156828045845 0.18441294133663177 0.009683504700660706
-0.13184018433094025 0.1954691857099533 0.010294175706803799
-0.12706927955150604 0.18663392961025238 0.009857981465756893
-0.12335559725761414 0.17949089407920837 0.009509027004241943
-0.12812365591526031 0.18469707667827606 0.009814362041652203
-0.1295013427734375 0.1849546730518341 0.009857981465756893
-0.13319002091884613 0.18846723437309265 0.010076078586280346
-0.13633163273334503 0.19113770127296448 0.010250556282699108
-0.13716430962085724 0.19054102897644043 0.010250556282699108
-0.14034323394298553 0.19317376613616943 0.01042503397911787
-0.14295697212219238 0.19497662782669067 0.010555892251431942
-0.1438063383102417 0.19435101747512817 0.010555892251431942
-0.14405524730682373 0.19292119145393372 0.010512272827327251
-0.14369319379329681 0.19069503247737885 0.01042503397911787
-0.14270977675914764 0.1876804679632187 0.010294175706803799
-0.1429191529750824 0.18626338243484497 0.010250556282699108
-0.14250726997852325 0.18405811488628387 0.010163317434489727
-0.14269395172595978 0.18264730274677277 0.010119698010385036
-0.14410802721977234 0.18280752003192902 0.010163317434489727
-0.14490430057048798 0.18217700719833374 0.010163317434489727
-0.14569780230522156 0.1815430074930191 0.010163317434489727
-0.14774595201015472 0.18245840072631836 0.010250556282699108
-0.14727649092674255 0.1802646666765213 0.010163317434489727
-0.1480616331100464 0.17962034046649933 0.010163317434489727
-0.15203802287578583 0.18281319737434387 0.01038141455501318
-0.15540289878845215 0.18520939350128174 0.010555892251431942
-0.1562095433473587 0.18452957272529602 0.010555892251431942
-0.15506675839424133 0.18156713247299194 0.01042503397911787
-0.1565096378326416 0.18164566159248352 0.010468653403222561
-0.15926697850227356 0.18322305381298065 0.010599511675536633
-0.15874750912189484 0.18102410435676575 0.010512272827327251
-0.1575499325990677 0.17808493971824646 0.01038141455501318
-0.15766024589538574 0.17665046453475952 0.01033779513090849
-0.15976648032665253 0.17744576930999756 0.01042503397911787
-0.15919578075408936 0.17526791989803314 0.01033779513090849
-0.15793420374393463 0.17236186563968658 0.010206936858594418
-0.16004104912281036 0.17313838005065918 0.010294175706803799
-0.1601136326789856 0.17170776426792145 0.010250556282699108
-0.1608613282442093 0.17100751399993896 0.010250556282699108
-0.16160595417022705 0.17030400037765503 0.010250556282699108
-0.16303832828998566 0.17031893134117126 0.010294175706803799
-0.1651678830385208 0.171043261885643 0.01038141455501318
-0.16591262817382812 0.17032095789909363 0.01038141455501318
-0.16805467009544373 0.17102059721946716 0.010468653403222561
-0.16809594631195068 0.16957616806030273 0.01042503397911787
-0.16742143034934998 0.16742821037769318 0.01033779513090849
-0.16885985434055328 0.16739945113658905 0.01038141455501318
-0.17030122876167297 0.16736134886741638 0.01042503397911787
-0.17317666113376617 0.16870810091495514 0.010555892251431942
-0.17966026067733765 0.17350296676158905 0.010904846712946892
-0.1876322329044342 0.17962612211704254 0.011341041885316372
-0.19421154260635376 0.18430741131305695 0.011689996346831322
-0.19792453944683075 0.186196431517601 0.011864474043250084
-0.19581250846385956 0.18260560929775238 0.011689996346831322
-0.19734102487564087 0.18242765963077545 0.011733615770936012
-0.2062373012304306 0.18898944556713104 0.012213428504765034
-0.1931660920381546 -0.1770041137933731 0.022921958938241005
-0.19385500252246857 -0.17919771373271942 0.023096270859241486
-0.19889980554580688 -0.18547704815864563 0.02379351668059826
-0.19953982532024384 -0.1877083033323288 0.02396782860159874
-0.19293799996376038 -0.18309128284454346 0.023270582780241966
-0.1842215210199356 -0.17635369300842285 0.022311870008707047
-0.17915065586566925 -0.17300371825695038 0.021788934245705605
-0.1755397766828537 -0.17100322246551514 0.021440312266349792
-0.17479197680950165 -0.17176751792430878 0.021440312266349792
-0.17404083907604218 -0.17252855002880096 0.021440312266349792
-0.17328639328479767 -0.1732863038778305 0.021440312266349792
-0.1739313304424286 -0.1754557341337204 0.021614624187350273
-0.17246586084365845 -0.17550243437290192 0.021527467295527458
-0.1710033118724823 -0.17553968727588654 0.021440312266349792
-0.16885173320770264 -0.1748509705066681 0.02126600220799446
-0.16877608001232147 -0.1763056516647339 0.021353155374526978
-0.166633740067482 -0.17559517920017242 0.021178845316171646
-0.16450081765651703 -0.1748693734407425 0.021004533395171165
-0.16577446460723877 -0.1777711808681488 0.02126600220799446
-0.16567343473434448 -0.17922434210777283 0.021353155374526978
-0.1621977686882019 -0.17700763046741486 0.021004533395171165
-0.16142389178276062 -0.17771366238594055 0.021004533395171165
-0.16198012232780457 -0.17989695072174072 0.021178845316171646
-0.15986692905426025 -0.17911554872989655 0.021004533395171165
-0.15776367485523224 -0.17831918597221375 0.020830221474170685
-0.1569841206073761 -0.17900584638118744 0.020830221474170685
-0.15816226601600647 -0.18194463849067688 0.02109169028699398
-0.15736687183380127 -0.18263301253318787 0.02109169028699398
-0.1533336192369461 -0.17953035235404968 0.020655911415815353
-0.15319247543811798 -0.18095798790454865 0.02074306644499302
-0.15432247519493103 -0.18391408026218414 0.021004533395171165
-0.15415553748607635 -0.18535161018371582 0.02109169028699398
-0.155246302485466 -0.18832851946353912 0.021353155374526978
-0.15883518755435944 -0.1944042444229126 0.021963246166706085
-0.16112005710601807 -0.1989663541316986 0.022399025037884712
-0.16399163007736206 -0.2043289840221405 0.022921958938241005
-0.1674395501613617 -0.21049998700618744 0.023532049730420113
-0.1689864546060562 -0.2143578976392746 0.023880673572421074
-0.16866284608840942 -0.2158781886100769 0.02396782860159874
-0.166499525308609 -0.21503669023513794 0.02379351668059826
-0.163133904337883 -0.21259981393814087 0.023444894701242447
-0.16280770301818848 -0.21410255134105682 0.023532049730420113
-0.16546912491321564 -0.21958446502685547 0.024054985493421555
-0.16033710539340973 -0.21471694111824036 0.023444894701242447
-0.157028466463089 -0.21221131086349487 0.023096270859241486
-0.1572791486978531 -0.21450118720531464 0.023270582780241966
-0.1557561606168747 -0.2143794596195221 0.02318342588841915
-0.15656538307666779 -0.21748249232769012 0.023444894701242447
-0.15272244811058044 -0.2141084522008896 0.02300911396741867
-0.14776213467121124 -0.20907805860042572 0.022399025037884712
-0.14627708494663239 -0.20890477299690247 0.022311870008707047
-0.14479637145996094 -0.2087225317955017 0.02222471497952938
-0.14106298983097076 -0.20524735748767853 0.021788934245705605
-0.1412874311208725 -0.20750780403614044 0.021963246166706085
-0.14260894060134888 -0.21142582595348358 0.022311870008707047
-0.13891777396202087 -0.20790453255176544 0.02187609113752842
-0.13416044414043427 -0.20269371569156647 0.02126600220799446
-0.13873682916164398 -0.2116081863641739 0.022137558087706566
-0.13618449866771698 -0.20970508456230164 0.02187609113752842
-0.1341903656721115 -0.20862162113189697 0.02170177921652794
-0.13274356722831726 -0.20836497843265533 0.021614624187350273
-0.13130155205726624 -0.20809967815876007 0.021527467295527458
-0.1325039267539978 -0.21204988658428192 0.02187609113752842
-0.12790794670581818 -0.20669621229171753 0.02126600220799446
-0.1296074092388153 -0.21149931848049164 0.02170177921652794
-0.12454893440008163 -0.20524954795837402 0.021004533395171165
-0.11749523878097534 -0.19554419815540314 0.01995866559445858
-0.11867829412221909 -0.19947952032089233 0.020307287573814392
-0.118817999958992 -0.20171216130256653 0.020481599494814873
-0.12144975364208221 -0.20825250446796417 0.02109169028699398
-0.1230304166674614 -0.2130940854549408 0.021527467295527458
-0.12012214958667755 -0.21016931533813477 0.021178845316171646
-0.1172417625784874 -0.20722325146198273 0.020830221474170685
-0.1168232411146164 -0.20860202610492706 0.0209173783659935
-0.11542896926403046 -0.20823846757411957 0.020830221474170685
-0.11356095224618912 -0.20699337124824524 0.020655911415815353
-0.1107553169131279 -0.20398500561714172 0.020307287573814392
-0.10986421257257462 -0.204466313123703 0.020307287573814392
-0.11645401269197464 -0.2190171331167221 0.02170177921652794
-0.11688880622386932 -0.22216802835464478 0.021963246166706085
-0.11269835382699966 -0.2164904773235321 0.021353155374526978
-0.10764747858047485 -0.20900946855545044 0.02056875452399254
-0.10492542386054993 -0.20592671632766724 0.020220132544636726
-0.10492268204689026 -0.20816172659397125 0.020394442602992058
-0.10267990827560425 -0.20594295859336853 0.02013297565281391
-0.100458525121212 -0.20370866358280182 0.019871508702635765
-0.0986953154206276 -0.202354297041893 0.019697196781635284
-0.10300496965646744 -0.21355023980140686 0.02074306644499302
-0.10550320893526077 -0.22119084000587463 0.021440312266349792
-0.10283730179071426 -0.21804504096508026 0.02109169028699398
-0.10104290395975113 -0.216685950756073 0.0209173783659935
-0.09926234185695648 -0.21531538665294647 0.02074306644499302
-0.0962563306093216 -0.21121396124362946 0.020307287573814392
-0.09042393416166306 -0.20073245465755463 0.019261419773101807
-0.09197836369276047 -0.20658549666404724 0.0197843536734581
-0.09548947215080261 -0.21701495349407196 0.02074306644499302
-0.09414444118738174 -0.21651598811149597 0.020655911415815353
-0.09201908856630325 -0.21417881548404694 0.020394442602992058
-0.09108369052410126 -0.2145782709121704 0.020394442602992058
-0.09014655649662018 -0.21497365832328796 0.020394442602992058
-0.08882647007703781 -0.2144445776939392 0.020307287573814392
-0.08788994699716568 -0.21483011543750763 0.020307287573814392
-0.09031039476394653 -0.22352445125579834 0.02109169028699398
-0.09191828221082687 -0.23039329051971436 0.02170177921652794
-0.08470528572797775 -0.21503527462482452 0.020220132544636726
-0.0855715274810791 -0.22004513442516327 0.020655911415815353
-0.08746664226055145 -0.2278566062450409 0.021353155374526978
-0.0815303698182106 -0.21519401669502258 0.02013297565281391
-0.08547492325305939 -0.22861121594905853 0.021353155374526978
-0.08964865654706955 -0.2430012971162796 0.022660493850708008
-0.08415813744068146 -0.23122063279151917 0.021527467295527458
-0.08180192857980728 -0.2278352826833725 0.021178845316171646
-0.08080703765153885 -0.22819003462791443 0.021178845316171646
-0.08046748489141464 -0.23042142391204834 0.021353155374526978
-0.07913699746131897 -0.22982841730117798 0.02126600220799446
-0.07845365256071091 -0.23111484944820404 0.021353155374526978
-0.07902498543262482 -0.23617853224277496 0.021788934245705605
-0.0739380493760109 -0.22422201931476593 0.020655911415815353
-0.07234331220388412 -0.22264762222766876 0.020481599494814873
-0.07531934231519699 -0.2352951616048813 0.021614624187350273
-0.07459152489900589 -0.23657163977622986 0.02170177921652794
-0.07267233729362488 -0.23404069244861603 0.021440312266349792
-0.07165045291185379 -0.23435555398464203 0.021440312266349792
-0.06976591050624847 -0.23180420696735382 0.021178845316171646
-0.06733912974596024 -0.2273305356502533 0.02074306644499302
-0.06774041801691055 -0.2324041873216629 0.021178845316171646
-0.06809868663549423 -0.23748555779457092 0.021614624187350273
-0.06570976972579956 -0.2329864650964737 0.021178845316171646
-0.06522500514984131 -0.23519086837768555 0.021353155374526978
-0.06524631381034851 -0.23931768536567688 0.02170177921652794
-0.06342796236276627 -0.23671334981918335 0.021440312266349792
-0.06239451467990875 -0.23698784410953522 0.021440312266349792
-0.0608610175549984 -0.23532892763614655 0.02126600220799446
-0.06007884815335274 -0.23655778169631958 0.021353155374526978
-0.059769123792648315 -0.2397174835205078 0.021614624187350273
-0.0587225966155529 -0.23997598886489868 0.021614624187350273
-0.05790751427412033 -0.2411985844373703 0.02170177921652794
-0.05571288987994194 -0.2366005927324295 0.02126600220799446
-0.05445590615272522 -0.23587077856063843 0.021178845316171646
-0.0547453798353672 -0.24193590879440308 0.02170177921652794
-0.05131740868091583 -0.23147408664226532 0.02074306644499302
-0.04967281594872475 -0.2287752777338028 0.020481599494814873
-0.049502626061439514 -0.23288752138614655 0.020830221474170685
-0.048080261796712875 -0.23115067183971405 0.020655911415815353
-0.047865673899650574 -0.23526303470134735 0.021004533395171165
-0.047033052891492844 -0.23644669353961945 0.02109169028699398
-0.043719880282878876 -0.22491495311260223 0.020045820623636246
-0.04310973361134529 -0.22706101834774017 0.020220132544636726
-0.38959699869155884 -2.102034330368042 0.18703623116016388
-0.3862714171409607 -2.136064052581787 0.1899123638868332
-0.0 -0.0 0.0
-0.0 -0.0 0.0
-0.3418359160423279 -2.0426838397979736 0.18119677901268005
-0.0 -0.0 0.0
-0.0 -0.0 0.0
-0.22883792221546173 -1.4867459535598755 0.13160517811775208
-0.2224958837032318 -1.4887155294418335 0.1316923201084137
-0.2167128324508667 -1.4946016073226929 0.13212810456752777
-0.2100507616996765 -1.4945465326309204 0.13204094767570496
-0.20272156596183777 -1.4895261526107788 0.13151800632476807
-0.19557026028633118 -1.485458254814148 0.13108223676681519
-0.18883547186851501 -1.4843209981918335 0.13090792298316956
-0.1825999766588211 -1.4871082305908203 0.13108223676681519
-0.17634373903274536 -1.4898693561553955 0.13125655055046082
-0.1697285771369934 -1.4896349906921387 0.131169393658638
-0.16257651150226593 -1.484419584274292 0.1306464523077011
-0.15599387884140015 -1.4841240644454956 0.1305592954158783
-0.1496165543794632 -1.4857817888259888 0.1306464523077011
-0.14332321286201477 -1.4884037971496582 0.13082076609134674
-0.13637173175811768 -1.4840548038482666 0.13038498163223267
-0.12946094572544098 -1.4796737432479858 0.12994921207427979
-0.12308596819639206 -1.481217384338379 0.1300363689661026
-0.1164655014872551 -1.479754090309143 0.12986205518245697
-0.11008162796497345 -1.4812415838241577 0.12994921207427979
-0.10382598638534546 -1.4846891164779663 0.13021068274974823
-0.09708625078201294 -1.481151819229126 0.12986205518245697
-0.09044016897678375 -1.4785782098770142 0.12960058450698853
-0.08364896476268768 -1.4729912281036377 0.12907765805721283
-0.07690823823213577 -1.467373251914978 0.12855471670627594
-0.07074394077062607 -1.4726699590682983 0.12899048626422882
-0.06423067301511765 -1.4709742069244385 0.12881618738174438
-0.057616204023361206 -1.4662632942199707 0.1283804029226303
-0.05132225155830383 -1.4694875478744507 0.12864187359809875
-0.04497082158923149 -1.471688985824585 0.12881618738174438
-0.03849683329463005 -1.4698795080184937 0.12864187359809875
-0.03208296373486519 -1.4700335264205933 0.12864187359809875
-0.025668485090136528 -1.4701594114303589 0.12864187359809875
-0.019240470603108406 -1.4692612886428833 0.12855471670627594
-0.012812086381018162 -1.4673389196395874 0.1283804029226303
-0.00639214226976037 -1.4633961915969849 0.12803179025650024
-6.886298706376692e-06 -1.4673948287963867 0.1283804029226303
0.0063827489502727985 -1.4643923044204712 0.12811893224716187
0.012303064577281475 -1.4105581045150757 0.12341252714395523
0.01530313491821289 -1.169432520866394 0.1023208349943161
0.01838933490216732 -1.0538136959075928 0.09221077710390091
0.022487526759505272 -1.0308164358139038 0.09020619839429855
0.026932910084724426 -1.0287166833877563 0.09003187716007233
0.03148207440972328 -1.0305808782577515 0.09020619839429855
0.03768182545900345 -1.079217553138733 0.09447682648897171
0.05165840685367584 -1.314958930015564 0.11513273417949677
0.06286995857954025 -1.440122127532959 0.1261143535375595
0.06977429986000061 -1.4527696371078491 0.1272473782300949
0.07621674984693527 -1.4544410705566406 0.12742169201374054
0.08250569552183151 -1.4531000852584839 0.12733453512191772
0.08878438174724579 -1.4517319202423096 0.1272473782300949
0.09511785954236984 -1.4513306617736816 0.1272473782300949
0.3515990674495697 -5.028468608856201 0.441008061170578
0.37368398904800415 -5.028873443603516 0.44118237495422363
0.39546653628349304 -5.025208950042725 0.441008061170578
0.41714170575141907 -5.020456790924072 0.44074657559394836
0.4389565885066986 -5.01759672164917 0.44065943360328674
0.46075448393821716 -5.014641761779785 0.4405722916126251
0.48234397172927856 -5.009608268737793 0.4403107762336731
0.5043973326683044 -5.009438991546631 0.4404851198196411
0.5262501835823059 -5.007190227508545 0.4404851198196411
0.5482013821601868 -5.005836486816406 0.4405722916126251
0.569812536239624 -5.001417636871338 0.4403979778289795
0.5916297435760498 -4.9988837242126465 0.4403979778289795
0.6131927967071533 -4.994277000427246 0.4402236342430115
0.3121463656425476 -2.4537770748138428 0.21640770137310028
0.324930340051651 -2.4681944847106934 0.21780219674110413
0.3355623483657837 -2.465766191482544 0.2177150398492813
0.34617936611175537 -2.463292360305786 0.2176278978586197
0.7217099666595459 -4.977740287780762 0.44004935026168823
0.27357470989227295 -1.8306005001068115 0.16193535923957825
0.2806503176689148 -1.823481798171997 0.16141243278980255
0.28844818472862244 -1.8212559223175049 0.16132527589797974
0.2962319850921631 -1.818996787071228 0.16123811900615692
0.30334386229515076 -1.8127743005752563 0.16080233454704285
0.8521013259887695 -4.959105968475342 0.4402236342430115
0.8735582828521729 -4.954359531402588 0.44013649225234985
0.8955217003822327 -4.952461242675781 0.4403107762336731
0.9174853563308716 -4.950466156005859 0.4404851198196411
0.9390769004821777 -4.946415901184082 0.4404851198196411
0.9612207412719727 -4.945204734802246 0.44074657559394836
0.9829832911491394 -4.9419403076171875 0.44083371758461
1.0045369863510132 -4.9376044273376465 0.44083371758461
1.026477336883545 -4.935125350952148 0.441008061170578
1.048415184020996 -4.9325480461120605 0.44118237495422363
1.070138692855835 -4.928900241851807 0.44126951694488525
1.0920658111572266 -4.92612886428833 0.4414438009262085
1.1142091751098633 -4.924232006072998 0.4417053163051605
1.1359084844589233 -4.920294284820557 0.44179245829582214
1.1580512523651123 -4.9182000160217285 0.4420539140701294
1.1801973581314087 -4.916006565093994 0.44231539964675903
1.201399326324463 -4.909842491149902 0.442228227853775
1.2235338687896729 -4.907453536987305 0.4424896836280823
1.2459156513214111 -4.905930519104004 0.4428383409976959
1.2678086757659912 -4.902376174926758 0.44301262497901917
1.289186954498291 -4.8967976570129395 0.44301262497901917
1.3107986450195312 -4.892087936401367 0.4430997669696808
1.3337039947509766 -4.892089366912842 0.4436227083206177
1.3561018705368042 -4.890063285827637 0.4439713656902313
1.3776960372924805 -4.885058403015137 0.44405850768089294
1.0873466730117798 -3.7921180725097656 0.34513673186302185
1.1033248901367188 -3.7854247093200684 0.3449624180793762
1.1158702373504639 -3.767202377319336 0.3437422513961792
1.468483567237854 -4.8793487548828125 0.44580161571502686
1.4891771078109741 -4.870989799499512 0.4456273317337036
1.1777880191802979 -3.793182849884033 0.34748995304107666
1.1955257654190063 -3.7918083667755127 0.34783855080604553
1.2120591402053833 -3.786555767059326 0.34783855080604553
1.2288771867752075 -3.7821786403656006 0.34792572259902954
1.2459921836853027 -3.778672933578491 0.34810003638267517
1.2640482187271118 -3.777923583984375 0.34853580594062805
1.2818012237548828 -3.7761456966400146 0.3488844335079193
1.2995625734329224 -3.7742843627929688 0.3492330312728882
1.320616602897644 -3.781745195388794 0.35045325756073
1.3381023406982422 -3.778764009475708 0.35071471333503723
1.3528943061828613 -3.7682015895843506 0.35027891397476196
1.7590982913970947 -4.8331828117370605 0.4499850869178772
1.7787909507751465 -4.821723461151123 0.4496364891529083
1.416754961013794 -3.789361000061035 0.3539394736289978
1.4315108060836792 -3.778485059738159 0.3535037040710449
1.4483407735824585 -3.7731330394744873 0.35359084606170654
1.874224066734314 -4.819655895233154 0.452425479888916
1.8948705196380615 -4.810505390167236 0.4523382782936096
1.9173187017440796 -4.8058929443359375 0.4526869058609009
1.9405089616775513 -4.803023338317871 0.45320984721183777
1.9648422002792358 -4.8028082847595215 0.4539942443370819
1.987304449081421 -4.797871112823486 0.45434287190437317
2.0109164714813232 -4.7955851554870605 0.45495298504829407
2.0337681770324707 -4.791350364685059 0.45538875460624695
2.056227684020996 -4.7860918045043945 0.4557373523712158
2.0802690982818604 -4.7843828201293945 0.4564346373081207
2.10313081741333 -4.779819965362549 0.4568703770637512
2.126802921295166 -4.776968479156494 0.45748046040534973
2.150080680847168 -4.773092746734619 0.4580034017562866
2.172952175140381 -4.768198490142822 0.4584392011165619
2.19582200050354 -4.763195514678955 0.45887497067451477
2.21995210647583 -4.760791778564453 0.4595722258090973
2.243253231048584 -4.756466388702393 0.4600951671600342
2.2639858722686768 -4.746633052825928 0.4600951671600342
2.289435863494873 -4.746579647064209 0.46105387806892395
2.3171119689941406 -4.750871181488037 0.4624483585357666
2.3417844772338867 -4.748756408691406 0.46323275566101074
2.365593671798706 -4.744733810424805 0.46384283900260925
2.3862738609313965 -4.7343668937683105 0.46384283900260925
0.0 -0.0 0.0
0.0 -0.0 0.0
2.1191508769989014 -4.070924758911133 0.4015265107154846
2.1433870792388916 -4.073982238769531 0.40274667739868164
2.1700286865234375 -4.081303596496582 0.40440264344215393
2.195831298828125 -4.086714267730713 0.4058842658996582
2.222198009490967 -4.09285306930542 0.40745308995246887
2.2491390705108643 -4.099712371826172 0.40910905599594116
2.276182174682617 -4.106414318084717 0.41076502203941345
2.3038129806518555 -4.113827228546143 0.41250813007354736
2.330080032348633 -4.118475437164307 0.41398975253105164
2.3569257259368896 -4.123837947845459 0.4155585765838623
2.3853566646575928 -4.131632328033447 0.41738882660865784
2.4144022464752197 -4.140117168426514 0.41930627822875977
2.4440724849700928 -4.149284839630127 0.4213108420372009
2.4723405838012695 -4.155704021453857 0.42305395007133484
2.5012238025665283 -4.162808895111084 0.42488422989845276
2.53125 -4.171444416046143 0.4268888235092163
2.5603575706481934 -4.178197383880615 0.42871907353401184
2.5916693210601807 -4.188164234161377 0.430897980928421
2.6225881576538086 -4.197091579437256 0.4329897463321686
2.6509761810302734 -4.201616287231445 0.43464571237564087
2.6805241107940674 -4.207653522491455 0.4364759624004364
2.71286940574646 -4.217701435089111 0.4387420117855072
2.742640495300293 -4.223369598388672 0.4405722916126251
2.775789260864258 -4.233856201171875 0.44292548298835754
2.806882619857788 -4.240810871124268 0.4449300467967987
2.8386423587799072 -4.2484025955200195 0.4470217823982239
2.8710789680480957 -4.2566237449646 0.44920068979263306
2.905883312225342 -4.267935276031494 0.4517281949520111
2.9504332542419434 -4.2929816246032715 0.4557373523712158
3.0242152214050293 -4.359464168548584 0.4641914665699005
3.036351442337036 -4.336434364318848 0.46314558386802673
3.0253467559814453 -4.280840873718262 0.45861348509788513
3.039947032928467 -4.261922359466553 0.4580034017562866
3.06026029586792 -4.251043319702148 0.45826488733291626
3.0840494632720947 -4.244903564453125 0.4590492844581604
3.1066651344299316 -4.237030029296875 0.4596593677997589
3.1257152557373047 -4.2242350578308105 0.45974650979042053
3.146501302719116 -4.213749408721924 0.4600951671600342
3.169053792953491 -4.205549716949463 0.4607052505016327
3.1909918785095215 -4.19644021987915 0.4612281918525696
3.210484504699707 -4.184057712554932 0.4614024758338928
3.2305400371551514 -4.172372817993164 0.46166396141052246
3.254847288131714 -4.1660871505737305 0.4625355005264282
3.275461196899414 -4.154974937438965 0.46288415789604187
3.294799566268921 -4.142202854156494 0.4630584418773651
3.317206382751465 -4.133225917816162 0.4636685252189636
3.3414785861968994 -4.1264543533325195 0.46454012393951416
3.363863706588745 -4.1172356605529785 0.46515020728111267
3.3862321376800537 -4.107900142669678 0.4657602906227112
3.4079458713531494 -4.097681522369385 0.46628323197364807
3.430915355682373 -4.088877201080322 0.4669804573059082
3.452585458755493 -4.078430652618408 0.4675033986568451
3.4709949493408203 -4.064084529876709 0.4675905406475067
0.0 -0.0 0.0
3.0762882232666016 -3.5389270782470703 0.41024208068847656
3.1179733276367188 -3.5554301738739014 0.4137282967567444
0.0 -0.0 0.0
3.5787265300750732 -4.009695529937744 0.47020524740219116
3.6095192432403564 -4.008848667144775 0.4719483554363251
3.633674383163452 -4.000434875488281 0.47281989455223083
3.655133008956909 -3.9889488220214844 0.4733428359031677
3.679941415786743 -3.9810094833374023 0.4743015468120575
3.702712059020996 -3.9707436561584473 0.47499880194664
3.724780321121216 -3.9596290588378906 0.4756088852882385
3.7488791942596436 -3.9505655765533447 0.4764804542064667
3.768836259841919 -3.9370486736297607 0.47682905197143555
3.733386516571045 -3.8661048412323 0.47020524740219116
3.4825949668884277 -3.5750486850738525 0.43665027618408203
3.4967644214630127 -3.5583980083465576 0.4364759624004364
3.659536600112915 -3.6916794776916504 0.45477867126464844
0.0 -0.0 0.0
0.0 -0.0 0.0
3.8262035846710205 -3.760068893432617 0.469333678483963
3.8739707469940186 -3.7739248275756836 0.4731685221195221
3.898282766342163 -3.7645974159240723 0.4741272032260895
3.912513017654419 -3.745485782623291 0.4738657772541046
3.9230377674102783 -3.722892999649048 0.4731685221195221
3.9356162548065186 -3.702327251434326 0.4727327525615692
0.0 -0.0 0.0
0.0 -0.0 0.0
0.0 -0.0 0.0
3.4377360343933105 -3.122678518295288 0.40632006525993347
3.2840185165405273 -2.9569995403289795 0.3866228759288788
0.0 -0.0 0.0
4.002823829650879 -3.5414671897888184 0.4675905406475067
1.9121272563934326 -1.6769227981567383 0.22250860929489136
1.9096519947052002 -1.6600672006607056 0.22137558460235596
1.9078210592269897 -1.6439156532287598 0.22032971680164337
1.9157332181930542 -1.6362224817276 0.220416858792305
1.9304574728012085 -1.6342847347259521 0.22128841280937195
1.9444382190704346 -1.631609320640564 0.22207282483577728
1.952304720878601 -1.623746633529663 0.2221599817276001
4.092464447021484 -3.373633861541748 0.46401718258857727
4.10174560546875 -3.351332902908325 0.46340709924697876
4.110909938812256 -3.3290154933929443 0.46279698610305786
4.12306547164917 -3.309175968170166 0.4625355005264282
4.133566856384277 -3.288053512573242 0.46209973096847534
4.140051364898682 -3.2638189792633057 0.4612281918525696
4.150327205657959 -3.242656707763672 0.4607923924922943
1.8573371171951294 -1.4381333589553833 0.20551322400569916
1.8556911945343018 -1.4239510297775269 0.2046416699886322
1.8507850170135498 -1.4073985815048218 0.20342150330543518
1.8521348237991333 -1.3957124948501587 0.2028985619544983
1.8645926713943481 -1.3923863172531128 0.2035958170890808
1.8770567178726196 -1.3889778852462769 0.20429305732250214
1.9104137420654297 -1.400802731513977 0.20725634694099426
2.043039083480835 -1.4843860864639282 0.22093980014324188
2.177236318588257 -1.5674190521240234 0.23471041023731232
2.2075741291046143 -1.5746809244155884 0.23723793029785156
2.2233726978302 -1.57135808467865 0.23819662630558014
5.895811080932617 -4.128380298614502 0.629700243473053
5.932593822479248 -4.115675926208496 0.6317048072814941
5.977587699890137 -4.108371734619141 0.6345809102058411
6.022630214691162 -4.100752830505371 0.6374570727348328
6.070197105407715 -4.094490051269531 0.6405947208404541
6.114511013031006 -4.085676193237305 0.6433836817741394
6.155539035797119 -4.074353218078613 0.6458240151405334
6.203249931335449 -4.06712007522583 0.6489616632461548
2.1438252925872803 -1.3922479152679443 0.22364163398742676
2.1339609622955322 -1.3726410865783691 0.22198568284511566
2.129847526550293 -1.3568936586380005 0.22093980014324188
2.129850387573242 -1.3438664674758911 0.22032971680164337
2.136538505554199 -1.3350883722305298 0.220416858792305
2.1516618728637695 -1.3315198421478271 0.22137558460235596
2.165945053100586 -1.3273241519927979 0.2222471386194229
2.1742711067199707 -1.319411277770996 0.22250860929489136
6.354725360870361 -3.8183951377868652 0.6486130356788635
9.084403991699219 -5.404781818389893 0.9248095154762268
7.009246349334717 -4.128861427307129 0.7117137908935547
6.998796463012695 -4.081676959991455 0.708837628364563
7.005324840545654 -4.044625282287598 0.7077046632766724
7.030689716339111 -4.018469333648682 0.7084890604019165
19.540447235107422 -11.0557279586792 1.964228868484497
6.704782962799072 -3.754953145980835 0.6723193526268005
5.516114234924316 -3.0577094554901123 0.55178302526474
5.5372633934021 -3.037924289703369 0.5525673627853394
5.571477890014648 -3.0251431465148926 0.5546591281890869
5.610950469970703 -3.0149500370025635 0.557273805141449
5.647800922393799 -3.0030667781829834 0.5596270561218262
5.6846537590026855 -2.9909191131591797 0.5619802474975586
5.724159240722656 -2.979886531829834 0.5645948648452759
5.766332626342773 -2.9699347019195557 0.5674710273742676
5.8049774169921875 -2.95786190032959 0.569998562335968
5.84273624420166 -2.9450600147247314 0.5724388957023621
5.8867340087890625 -2.93509578704834 0.575489342212677
5.928075313568115 -2.9234819412231445 0.5782783627510071
5.971217632293701 -2.9124364852905273 0.5812416076660156
6.014375686645508 -2.9010696411132812 0.5842049717903137
6.057547569274902 -2.8893814086914062 0.5871682167053223
6.101632595062256 -2.8777964115142822 0.5902186632156372
6.143925189971924 -2.865039110183716 0.5930948257446289
6.1853179931640625 -2.851550579071045 0.5958837866783142
6.231241703033447 -2.839820623397827 0.5991085767745972
6.277179718017578 -2.8277437686920166 0.6023333072662354
6.322220802307129 -2.8149147033691406 0.6054709553718567
6.36635684967041 -2.801344871520996 0.6085214018821716
6.407753944396973 -2.7862517833709717 0.6113103628158569
6.442732334136963 -2.768097400665283 0.6134892702102661
6.465752601623535 -2.7446300983428955 0.6145350933074951
6.483178615570068 -2.718703508377075 0.6150580644607544
6.503263473510742 -2.6938207149505615 0.6158424615859985
6.522331237792969 -2.6684370040893555 0.616539716720581
6.540378093719482 -2.6425650119781494 0.617149829864502
6.558322906494141 -2.616586208343506 0.6177598834037781
6.576165676116943 -2.590501070022583 0.618369996547699
6.592977046966553 -2.5639488697052 0.6188929080963135
6.610611438751221 -2.537656307220459 0.6195030212402344
6.630937576293945 -2.512317657470703 0.6203745603561401
6.650234222412109 -2.4865007400512695 0.6211589574813843
6.667562484741211 -2.459873676300049 0.6217690706253052
6.684784889221191 -2.43314266204834 0.6223791241645813
6.700963020324707 -2.4059715270996094 0.6229020953178406
6.721726894378662 -2.380368232727051 0.623860776424408
6.741454601287842 -2.3543012142181396 0.6247323155403137
6.755430698394775 -2.3261609077453613 0.6250810027122498
6.776835918426514 -2.3005056381225586 0.6261268854141235
6.795311450958252 -2.273759126663208 0.6269112229347229
6.810844421386719 -2.2459592819213867 0.6274341940879822
6.832895755767822 -2.220221996307373 0.6285672187805176
6.852005958557129 -2.1934239864349365 0.6294387578964233
6.870062351226807 -2.1662018299102783 0.6302231550216675
6.889914035797119 -2.1394546031951904 0.6311818957328796
6.90871000289917 -2.112283945083618 0.6320534348487854
6.928354263305664 -2.0852773189544678 0.6330121755599976
6.943118095397949 -2.0567245483398438 0.6335350871086121
6.951069355010986 -2.0261311531066895 0.6334478855133057
9.296390533447266 -2.665802478790283 0.8461079001426697
9.268623352050781 -2.6141269207000732 0.842534601688385
9.250182151794434 -2.5654070377349854 0.8398327231407166
