# .PCD v0.7 - Point Cloud Data file format
VERSION 0.7
FIELDS x y z
SIZE 4 4 4
TYPE F F F
COUNT 1 1 1
WIDTH 868
HEIGHT 1
VIEWPOINT 0 0 0 1 0 0 0
POINTS 868
DATA ascii
3.2743287086486816 -4.153538703918457 0.23092104494571686
3.296152114868164 -4.143903732299805 0.2311827540397644
3.3179538249969482 -4.134157180786133 0.23144447803497314
3.3403618335723877 -4.125075340270996 0.23174981772899628
3.362753391265869 -4.1158766746521 0.23205514252185822
3.3832221031188965 -4.104248523712158 0.23222963511943817
3.403653144836426 -4.092519760131836 0.23240409791469574
3.4278993606567383 -4.085283279418945 0.23284029960632324
3.4508559703826904 -4.076387405395508 0.23318925499916077
3.4725024700164795 -4.065849781036377 0.2334509640932083
3.481732130050659 -4.040820121765137 0.23288391530513763
0.0 -0.0 0.0
3.124269485473633 -3.5626096725463867 0.20688675343990326
3.046444892883301 -3.4434406757354736 0.20073643326759338
0.0 -0.0 0.0
0.0 -0.0 0.0
0.0 -0.0 0.0
0.0 -0.0 0.0
0.0 -0.0 0.0
0.0 -0.0 0.0
0.0 -0.0 0.0
3.0059056282043457 -3.1676206588745117 0.19066035747528076
3.023843765258789 -3.1588053703308105 0.1909220665693283
0.0 -0.0 0.0
0.0 -0.0 0.0
0.0 -0.0 0.0
0.0 -0.0 0.0
0.0 -0.0 0.0
0.0 -0.0 0.0
0.0 -0.0 0.0
0.0 -0.0 0.0
0.0 -0.0 0.0
0.0 -0.0 0.0
0.0 -0.0 0.0
0.0 -0.0 0.0
0.0 -0.0 0.0
0.0 -0.0 0.0
0.0 -0.0 0.0
3.443885564804077 -3.1282646656036377 0.20313549041748047
3.4738359451293945 -3.127915382385254 0.20409512519836426
0.0 -0.0 0.0
1.90351402759552 -1.6841191053390503 0.1109677255153656
1.9070885181427002 -1.6725038290023804 0.11074962466955185
1.9060741662979126 -1.6569569110870361 0.11026981472969055
1.909501552581787 -1.6453635692596436 0.1100517138838768
1.9212206602096558 -1.6409093141555786 0.11031343042850494
1.935987114906311 -1.6389659643173218 0.11074962466955185
1.9454158544540405 -1.6324297189712524 0.11088048666715622
4.084008693695068 -3.396700859069824 0.23192429542541504
4.095706939697266 -3.3763067722320557 0.23174981772899628
4.106531143188477 -3.355243444442749 0.23153170943260193
4.1125922203063965 -3.3303775787353516 0.23105190694332123
4.122409343719482 -3.3086495399475098 0.23079019784927368
4.135242938995361 -3.289386749267578 0.2307029366493225
4.14641809463501 -3.2688381671905518 0.23052847385406494
4.155130386352539 -3.2464096546173096 0.2302231341600418
1.8492286205291748 -1.4318548440933228 0.10211298614740372
1.8538734912872314 -1.4225562810897827 0.10202575474977493
1.8505198955535889 -1.4071969985961914 0.10150232166051865
1.8518550395965576 -1.395501732826233 0.1012405976653099
1.8587268590927124 -1.3880059719085693 0.1012842208147049
1.8711901903152466 -1.3846368789672852 0.10163317620754242
1.894938588142395 -1.3894555568695068 0.10259279608726501
1.989081621170044 -1.4451828002929688 0.10734731703996658
2.176175594329834 -1.5666553974151611 0.11707443743944168
2.2163374423980713 -1.5809319019317627 0.11886283755302429
2.229741334915161 -1.5758590698242188 0.11921178549528122
2.2480533123016357 -1.574137806892395 0.11982246488332748
5.857651233673096 -4.063685417175293 0.3112679421901703
5.898379802703857 -4.0539326667785645 0.3124893009662628
5.9416117668151855 -4.04558801651001 0.31384149193763733
5.987367630004883 -4.038619518280029 0.3153245747089386
6.029852390289307 -4.029108047485352 0.3166331350803375
6.074033737182617 -4.020405292510986 0.3180289566516876
6.120759963989258 -4.013036251068115 0.3195556402206421
6.168375015258789 -4.005880355834961 0.32112595438957214
2.150156021118164 -1.3830583095550537 0.11162201315164566
2.146059274673462 -1.3672219514846802 0.11109858751296997
2.1435554027557373 -1.3525139093399048 0.11066239327192307
2.1426584720611572 -1.3389126062393188 0.11031343042850494
2.148480176925659 -1.329550862312317 0.11031343042850494
2.1610755920410156 -1.3243398666381836 0.11066239327192307
2.1770823001861572 -1.3211172819137573 0.11118581891059875
2.194815158843994 -1.3188095092773438 0.11179649829864502
6.371545314788818 -3.790762186050415 0.3236995041370392
0.0 -0.0 0.0
7.001583576202393 -4.0833024978637695 0.3538840711116791
7.00722074508667 -4.045720100402832 0.3532734215259552
7.018735408782959 -4.011636734008789 0.3529680669307709
10.749032020568848 -6.081661224365234 0.5392228960990906
10.819921493530273 -6.059598922729492 0.5414475202560425
6.770063877105713 -3.7528023719787598 0.3379630148410797
5.525972366333008 -3.0317294597625732 0.2751947343349457
5.5514397621154785 -3.014263153076172 0.27580541372299194
5.5891804695129395 -3.0032522678375244 0.2770267426967621
5.628695011138916 -2.9929075241088867 0.2783353328704834
5.667340278625488 -2.981809377670288 0.2796002924442291
5.705995082855225 -2.970430850982666 0.28086525201797485
5.744658946990967 -2.9587714672088623 0.2821302115917206
5.783328533172607 -2.946830987930298 0.2833951711654663
5.822895050048828 -2.935058832168579 0.2847037613391876
5.8651509284973145 -2.924334764480591 0.2861431837081909
5.904735088348389 -2.9119715690612793 0.28745177388191223
5.94701623916626 -2.900632381439209 0.2888911962509155
5.992910385131836 -2.8907158374786377 0.29050514101982117
6.033420085906982 -2.877872943878174 0.2918573319911957
6.07483434677124 -2.865157127380371 0.2932531535625458
6.119874000549316 -2.853823661804199 0.29482343792915344
6.164021968841553 -2.8417327404022217 0.2963501214981079
6.21090841293335 -2.8305540084838867 0.29800766706466675
6.257813453674316 -2.8190197944641113 0.2996652126312256
6.304736137390137 -2.8071298599243164 0.3013227581977844
6.349843978881836 -2.794079065322876 0.3028930425643921
6.399538516998291 -2.782679557800293 0.3046814203262329
6.438239097595215 -2.766166925430298 0.305946409702301
6.462202548980713 -2.7431232929229736 0.3065134584903717
6.484244346618652 -2.7191503047943115 0.3069932460784912
6.50343132019043 -2.693890333175659 0.3073422312736511
6.519746780395508 -2.66737961769104 0.3075602948665619
6.538733959197998 -2.6419007778167725 0.3079092800617218
6.555766582489014 -2.6155662536621094 0.30817100405693054
6.576411724090576 -2.5905981063842773 0.30860716104507446
6.592308521270752 -2.5636889934539795 0.30882528424263
6.609027862548828 -2.537048578262329 0.30908700823783875
6.630311489105225 -2.512080430984497 0.30956679582595825
6.649631500244141 -2.4862754344940186 0.30995938181877136
6.666977882385254 -2.459657907485962 0.3102647066116333
6.68515682220459 -2.4332780838012695 0.3106136620044708
6.7041730880737305 -2.4071240425109863 0.31100624799728394
6.723088264465332 -2.380850315093994 0.31139883399009705
6.74190092086792 -2.354457139968872 0.31179139018058777
6.759666919708252 -2.327619791030884 0.3121403455734253
6.776381015777588 -2.3003509044647217 0.31244567036628723
6.7967753410339355 -2.2742488384246826 0.3129254877567291
6.817070484161377 -2.2480123043060303 0.313405305147171
6.833465576171875 -2.220407009124756 0.31371065974235535
6.848797798156738 -2.192396879196167 0.3139723539352417
6.86973237991333 -2.166097640991211 0.3144958019256592
6.89152193069458 -2.139953851699829 0.31506285071372986
6.910346984863281 -2.1127846240997314 0.31549903750419617
6.928110122680664 -2.0852038860321045 0.3158916234970093
6.94576358795166 -2.0575082302093506 0.3162841796875
6.957552433013916 -2.0280208587646484 0.31641504168510437
6.963454246520996 -1.9968173503875732 0.3162841796875
8.880749702453613 -2.5047309398651123 0.4028686583042145
8.979201316833496 -2.4902544021606445 0.406838059425354
9.13841724395752 -2.4915213584899902 0.41355544328689575
9.261140823364258 -2.481619119644165 0.4186152517795563
3.725369930267334 -0.9808497428894043 0.16819636523723602
3.724778175354004 -0.9633346796035767 0.16797825694084167
3.7211997509002686 -0.9451057314872742 0.16762931644916534
3.7311041355133057 -0.9303101897239685 0.1678910255432129
3.7448320388793945 -0.9163960218429565 0.1683272272348404
9.263670921325684 -2.2241129875183105 0.41595447063446045
9.187712669372559 -2.163520336151123 0.41211602091789246
9.134765625 -2.109027147293091 0.4093243479728699
9.11952018737793 -2.063636541366577 0.4082338511943817
9.087471961975098 -2.0147433280944824 0.4064018428325653
9.024906158447266 -1.9595975875854492 0.4032176434993744
9.009917259216309 -1.915215015411377 0.40217074751853943
8.758989334106445 -1.8219674825668335 0.3906116485595703
8.705179214477539 -1.7711830139160156 0.3878636062145233
8.640316009521484 -1.7187591791152954 0.3846357762813568
8.599678993225098 -1.6717009544372559 0.3824984133243561
8.62455940246582 -1.6375164985656738 0.3832835853099823
8.671896934509277 -1.6073341369628906 0.3850719630718231
8.72700023651123 -1.578192114830017 0.38720932602882385
8.715109825134277 -1.536802053451538 0.38638055324554443
8.650839805603027 -1.486578345298767 0.3832399547100067
4.203482627868652 -0.703466534614563 0.18608032166957855
4.208484172821045 -0.6854398846626282 0.18616755306720734
4.205514430999756 -0.6661326289176941 0.1859058290719986
4.208380699157715 -0.6477763056755066 0.1859058290719986
4.223024368286133 -0.6311798095703125 0.18642926216125488
8.626477241516113 -1.250870704650879 0.3805791735649109
8.620970726013184 -1.2116892337799072 0.380099356174469
8.618255615234375 -1.1729837656021118 0.37975040078163147
8.595558166503906 -1.1317168474197388 0.37852907180786133
8.571673393249512 -1.09054434299469 0.3772640824317932
8.578332901000977 -1.0533766746520996 0.377351313829422
8.617572784423828 -1.0200470685958862 0.37887802720069885
8.647749900817871 -0.9853770136833191 0.3800121247768402
8.839664459228516 -0.968192994594574 0.38825616240501404
9.087230682373047 -0.955201268196106 0.3989429473876953
9.102246284484863 -0.9166429042816162 0.3994227349758148
9.103175163269043 -0.876630961894989 0.39929187297821045
9.09398078918457 -0.8357142210006714 0.39872485399246216
9.044792175292969 -0.7914109826087952 0.39641299843788147
8.892844200134277 -0.7390308380126953 0.38960838317871094
8.658943176269531 -0.681563675403595 0.379226952791214
8.588109016418457 -0.6382960081100464 0.3759991526603699
3.306765079498291 -0.23126590251922607 0.1447291225194931
3.3007640838623047 -0.21637779474258423 0.14442379772663116
3.2917048931121826 -0.2013634741306305 0.14398759603500366
3.2955446243286133 -0.18716877698898315 0.14411845803260803
3.306306838989258 -0.17331047356128693 0.14455465972423553
5.270893096923828 -0.25323376059532166 0.23039759695529938
5.466577053070068 -0.23873251676559448 0.23890338838100433
5.611318588256836 -0.22052738070487976 0.24518458545207977
5.606236457824707 -0.19583210349082947 0.24492286145687103
8.601784706115723 -0.2628972828388214 0.37573739886283875
8.732682228088379 -0.2287636399269104 0.3814079463481903
8.809507369995117 -0.1923152357339859 0.3847230076789856
8.98906421661377 -0.1569976508617401 0.3925308883190155
9.012639999389648 -0.11807509511709213 0.3935341238975525
9.008073806762695 -0.07870539277791977 0.39331603050231934
9.000340461730957 -0.03936467692255974 0.3929671049118042
8.996429443359375 -9.299383236793801e-05 0.39279258251190186
8.98635482788086 0.0391177274286747 0.39235642552375793
8.966117858886719 0.07815343886613846 0.39148402214050293
3.7760794162750244 0.04939254745841026 0.16488128900527954
3.778824806213379 0.06592055410146713 0.1650121510028839
3.7735068798065186 0.08229918032884598 0.16479404270648956
3.777106761932373 0.09886794537305832 0.16496852040290833
3.786625385284424 0.11565268039703369 0.16540472209453583
5.4265217781066895 0.18944215774536133 0.23707138001918793
5.552424430847168 0.21809788048267365 0.24261103570461273
8.687443733215332 0.37921202182769775 0.3796631693840027
0.0 0.0 0.0
0.0 0.0 0.0
0.0 0.0 0.0
0.0 0.0 0.0
0.0 0.0 0.0
0.0 0.0 0.0
8.79037094116211 0.6531460285186768 0.3848538398742676
8.888031005859375 0.6994107365608215 0.3892594277858734
8.869959831237793 0.7369444966316223 0.38860514760017395
8.867655754089355 0.7757269144058228 0.38864877820014954
8.869159698486328 0.8148688077926636 0.3888668417930603
6.749330997467041 0.6498161554336548 0.29604479670524597
6.7543840408325195 0.680060088634491 0.2963937520980835
6.751352310180664 0.7095250487327576 0.2963937520980835
6.7442193031311035 0.7385414838790894 0.29621925950050354
6.7349772453308105 0.767283022403717 0.2959575653076172
6.729580879211426 0.7964276671409607 0.2958703339099884
6.7270331382751465 0.8259050846099854 0.2959139347076416
6.722374439239502 0.8551232814788818 0.2958703339099884
6.713626861572266 0.8837950229644775 0.29565221071243286
6.7067365646362305 0.9126760959625244 0.2955213487148285
6.70466947555542 0.9422091245651245 0.29560860991477966
6.700494289398193 0.9714547395706177 0.29560860991477966
6.694215297698975 1.0003864765167236 0.2955213487148285
6.687811851501465 1.0292819738388062 0.2954341173171997
6.682270526885986 1.058297038078308 0.2953904867172241
6.676603317260742 1.0872831344604492 0.2953468859195709
6.667853832244873 1.1157454252243042 0.29517239332199097
6.664891719818115 1.1451671123504639 0.29525965452194214
6.658847332000732 1.1740636825561523 0.29521602392196655
6.649729251861572 1.2023961544036865 0.295041561126709
6.642454147338867 1.2310354709625244 0.2949542999267578
6.636038303375244 1.2598204612731934 0.2949106693267822
6.631458759307861 1.288954257965088 0.2949542999267578
6.628711223602295 1.3184618949890137 0.2950851619243622
6.620937347412109 1.3469741344451904 0.2949979305267334
6.615975379943848 1.3760539293289185 0.295041561126709
6.610885143280029 1.405116081237793 0.2950851619243622
6.605667591094971 1.4341601133346558 0.29512879252433777
6.599347114562988 1.4629690647125244 0.29512879252433777
6.589977741241455 1.4910887479782104 0.2949979305267334
6.582435131072998 1.5196038484573364 0.2949542999267578
6.5776872634887695 1.5487686395645142 0.295041561126709
6.568923473358154 1.5769879817962646 0.2949542999267578
6.546453475952148 1.601836085319519 0.29425638914108276
6.515167713165283 1.6243430376052856 0.293165922164917
6.486715316772461 1.6473453044891357 0.2922062873840332
6.462055683135986 1.6711307764053345 0.29142114520072937
6.435379981994629 1.6942237615585327 0.29054874181747437
6.403800964355469 1.7158231735229492 0.2894582450389862
6.376011848449707 1.7382303476333618 0.288542240858078
6.352000713348389 1.76149582862854 0.28780072927474976
6.3231000900268555 1.7832289934158325 0.28684109449386597
6.296051979064941 1.805294394493103 0.28596872091293335
6.270850658416748 1.8277169466018677 0.28518354892730713
6.246531963348389 1.8502378463745117 0.2844420373439789
6.221179008483887 1.8722933530807495 0.28365689516067505
6.19575309753418 1.894162893295288 0.28287172317504883
6.168347358703613 1.91525399684906 0.2819993495941162
6.140875339508057 1.9361419677734375 0.2811269462108612
6.113339424133301 1.9568268060684204 0.2802545726299286
6.089540481567383 1.9785432815551758 0.27955666184425354
6.0647196769714355 1.9997764825820923 0.2788151204586029
6.038882255554199 2.0205135345458984 0.2780299782752991
6.0139265060424805 2.0413849353790283 0.2772884666919708
5.990792751312256 2.062727451324463 0.27663418650627136
5.964757919311523 2.082918882369995 0.27584901452064514
5.939602851867676 2.1032559871673584 0.2751074731349945
5.913444519042969 2.1230759620666504 0.27432236075401306
5.844040870666504 2.1269900798797607 0.2715306878089905
0.0 0.0 0.0
5.032648086547852 1.8815720081329346 0.23458507657051086
8.560521125793457 3.243192434310913 0.39968445897102356
7.456900596618652 2.86234974861145 0.3487370014190674
7.3540215492248535 2.8597371578216553 0.3445059359073639
7.1332573890686035 2.809781789779663 0.3347351849079132
7.026280879974365 2.803119659423828 0.33028602600097656
6.916721343994141 2.7944557666778564 0.32570597529411316
8.5244722366333 3.487353563308716 0.4021271765232086
6.4785661697387695 2.6834335327148438 0.3061645030975342
6.447447299957275 2.7035627365112305 0.3052484691143036
6.438348770141602 2.7328405380249023 0.30537933111190796
6.385056972503662 2.7431609630584717 0.3034164607524872
6.138481616973877 2.6690144538879395 0.2922499179840088
6.0207014083862305 2.6491000652313232 0.2871900498867035
5.994482517242432 2.6688435077667236 0.28649213910102844
7.1970086097717285 3.241929292678833 0.34463679790496826
5.8209638595581055 2.652695417404175 0.2792949378490448
5.776670932769775 2.6630115509033203 0.27772465348243713
0.0 0.0 0.0
5.428820610046387 2.5603315830230713 0.2620652914047241
4.305763244628906 2.0536909103393555 0.20828257501125336
4.2985615730285645 2.073326826095581 0.20836983621120453
6.543310642242432 3.191304922103882 0.31785449385643005
5.058053493499756 2.494293212890625 0.24623145163059235
5.061427116394043 2.5234713554382324 0.2469293624162674
5.052152156829834 2.546431303024292 0.24701659381389618
3.9131572246551514 1.9938039779663086 0.19175083935260773
3.9017555713653564 2.0094869136810303 0.19161997735500336
0.0 0.0 0.0
4.654165744781494 2.448615789413452 0.22961246967315674
3.5610859394073486 1.893417477607727 0.17609147727489471
3.542229652404785 1.9032632112503052 0.17556802928447723
0.0 0.0 0.0
5.5041375160217285 3.019602060317993 0.2741042375564575
5.416637420654297 3.002420663833618 0.2703965902328491
5.38082218170166 3.0133347511291504 0.26926249265670776
5.389361381530762 3.0490827560424805 0.2703529894351959
5.362995147705078 3.0651328563690186 0.2696986794471741
4.241240978240967 2.448624849319458 0.21382224559783936
0.0 0.0 0.0
3.1178693771362305 1.8365229368209839 0.15798942744731903
3.110684871673584 1.8506203889846802 0.15803304314613342
0.0 0.0 0.0
6.03509521484375 3.6621017456054688 0.30821460485458374
6.115316390991211 3.747385025024414 0.3131435811519623
4.5969061851501465 2.8445866107940674 0.23602451384067535
3.814303398132324 2.3833868503570557 0.19637449085712433
2.9530248641967773 1.8631774187088013 0.15244975686073303
2.9431819915771484 1.8749710321426392 0.15236252546310425
0.0 0.0 0.0
7.841700553894043 5.092344284057617 0.4082338511943817
5.296208381652832 3.4722678661346436 0.2765032947063446
3.5081753730773926 2.321958065032959 0.18368123471736908
3.464783191680908 2.3150417804718018 0.18193645775318146
5.03909969329834 3.398838996887207 0.2653803527355194
0.0 0.0 0.0
4.264941692352295 2.931147336959839 0.22594843804836273
0.0 0.0 0.0
2.5402467250823975 1.7786600589752197 0.13539458811283112
2.5316460132598877 1.789150357246399 0.13535095751285553
0.0 0.0 0.0
3.222960948944092 2.32014799118042 0.1733870655298233
3.158653736114502 2.29484486579895 0.17046457529067993
3.087378978729248 2.263709306716919 0.16714949905872345
3.0742597579956055 2.2747817039489746 0.1669750213623047
3.837585687637329 2.8655970096588135 0.20911134779453278
0.0 0.0 0.0
5.060976982116699 3.84837007522583 0.27759379148483276
5.505433082580566 4.224372863769531 0.3029802739620209
5.430862903594971 4.204929351806641 0.29988330602645874
0.0 0.0 0.0
2.8731181621551514 2.2649331092834473 0.15973420441150665
0.0 0.0 0.0
0.0 0.0 0.0
5.837074279785156 4.726663589477539 0.3279305696487427
0.0 0.0 0.0
2.1461777687072754 1.7691328525543213 0.12143637984991074
2.1392061710357666 1.7791191339492798 0.12147999554872513
2.122239351272583 1.7807302474975586 0.12095656991004944
6.321234703063965 5.351200103759766 0.3616047203540802
6.305422782897949 5.385218620300293 0.3620409071445465
3.156069755554199 2.7193825244903564 0.18189284205436707
3.156238317489624 2.743614435195923 0.1825907677412033
2.48774790763855 2.181647300720215 0.14446742832660675
2.4819464683532715 2.195791244506836 0.1446855068206787
2.490975856781006 2.2232308387756348 0.14577600359916687
2.5027823448181152 2.2534642219543457 0.1470409482717514
2.4951446056365967 2.266378402709961 0.14717181026935577
3.612941026687622 3.310575485229492 0.21395310759544373
3.612400770187378 3.339193105697632 0.21478186547756195
0.0 0.0 0.0
2.9056484699249268 2.7332987785339355 0.17417222261428833
2.880650043487549 2.733572483062744 0.1733870655298233
5.463150501251221 5.229709148406982 0.3301987648010254
5.361227035522461 5.177158355712891 0.3254006505012512
0.0 0.0 0.0
1.7265805006027222 1.696666955947876 0.10568977892398834
1.7212896347045898 1.706294298171997 0.10582064092159271
1.7201861143112183 1.7201464176177979 0.10621321201324463
3.1826717853546143 3.210493564605713 0.19737772643566132
5.0607099533081055 5.149696350097656 0.3152373135089874
4.9440789222717285 5.0751214027404785 0.3093487024307251
4.950342178344727 5.126110076904297 0.3111371099948883
2.1174962520599365 2.211913824081421 0.13369342684745789
2.087881326675415 2.2001163959503174 0.13242846727371216
2.067993640899658 2.1982903480529785 0.1317741721868515
4.7838134765625 5.129891395568848 0.30625173449516296
2.473939895629883 2.676229953765869 0.15912353992462158
2.4581894874572754 2.682579517364502 0.15886181592941284
0.0 0.0 0.0
4.585258960723877 5.092324733734131 0.2991853952407837
4.554347515106201 5.102593421936035 0.2986183166503906
4.512180328369141 5.09997034072876 0.2973097562789917
4.469464302062988 5.096324920654297 0.2959575653076172
3.1762797832489014 3.653803825378418 0.21137955784797668
3.177262783050537 3.6873056888580322 0.21251365542411804
3.194234848022461 3.739877700805664 0.21473824977874756
4.2772040367126465 5.052314281463623 0.2890220880508423
0.0 0.0 0.0
0.0 0.0 0.0
4.20625638961792 5.102471351623535 0.28871673345565796
4.128326892852783 5.052694797515869 0.2848782241344452
1.7635899782180786 2.177798271179199 0.12235238403081894
1.7534456253051758 2.1846935749053955 0.12230876833200455
1.725238561630249 2.168867826461792 0.12100018560886383
1.6860700845718384 2.138715982437134 0.11890645325183868
1.64412260055542 2.104327917098999 0.11659462749958038
1.2924044132232666 1.669121265411377 0.09216777235269547
1.2692962884902954 1.654137134552002 0.09103366732597351
1.2590430974960327 1.6556833982467651 0.09081556648015976
1.2445919513702393 1.651586890220642 0.09029214084148407
0.0 0.0 0.0
3.676727771759033 4.96868371963501 0.26987317204475403
3.6473331451416016 4.974205017089844 0.26930609345436096
3.6109135150909424 4.9698662757873535 0.2682156264781952
3.5751852989196777 4.9661149978637695 0.2671687602996826
0.0 0.0 0.0
0.0 0.0 0.0
0.0 0.0 0.0
2.500519275665283 3.604386806488037 0.19153274595737457
2.4938223361968994 3.6284360885620117 0.19223064184188843
2.1777093410491943 3.198307752609253 0.16893789172172546
2.1302132606506348 3.1580848693847656 0.16632072627544403
2.0764496326446533 3.10754132270813 0.1631801277399063
1.7524199485778809 2.6475448608398438 0.13862241804599762
1.7057931423187256 2.6016948223114014 0.13583077490329742
1.6737481355667114 2.5772743225097656 0.13417324423789978
1.6522177457809448 2.5685882568359375 0.13334447145462036
3.1241698265075684 4.903826713562012 0.2538648247718811
1.3226643800735474 2.0962369441986084 0.1082197055220604
1.3150936365127563 2.104529857635498 0.10835056751966476
1.3022184371948242 2.1043012142181396 0.10804522782564163
2.543243408203125 4.150076389312744 0.21251365542411804
2.4831297397613525 4.091952800750732 0.2089805006980896
2.1992247104644775 3.660017967224121 0.18642926216125488
0.0 0.0 0.0
1.2052968740463257 2.0461277961730957 0.10368328541517258
1.195351004600525 2.0496411323547363 0.1035960465669632
1.1794029474258423 2.042724609375 0.10298537462949753
2.773751974105835 4.852912902832031 0.24405048787593842
1.75582754611969 3.103320360183716 0.15567760169506073
1.7408056259155273 3.108337163925171 0.15554673969745636
2.6828677654266357 4.83987283706665 0.24160778522491455
0.8568072319030762 1.5617048740386963 0.07777336984872818
0.8552287817001343 1.575086236000061 0.07825317978858948
0.8587514758110046 1.5981638431549072 0.07921281456947327
0.8541152477264404 1.6063060760498047 0.07943090796470642
2.135655164718628 4.059082984924316 0.2002566158771515
2.1077749729156494 4.048867702484131 0.1992969959974289
1.3224875926971436 2.5676848888397217 0.12610365450382233
1.3062822818756104 2.5636391639709473 0.12562383711338043
1.2784457206726074 2.536306142807007 0.12400992214679718
1.2615717649459839 2.5302371978759766 0.1234428733587265
1.2461007833480835 2.5267574787139893 0.1230066791176796
2.3369863033294678 4.791369438171387 0.23275306820869446
1.6888645887374878 3.5012588500976562 0.1697230488061905
1.6722811460494995 3.505889415740967 0.16959218680858612
2.2178144454956055 4.70227575302124 0.2269953042268753
2.1871423721313477 4.690176963806152 0.22594843804836273
2.1913349628448486 4.753204345703125 0.22852198779582977
2.175546407699585 4.773629665374756 0.22904542088508606
2.1489522457122803 4.77032470703125 0.228434756398201
0.9118762016296387 2.048032760620117 0.09788191318511963
0.9005171060562134 2.0465054512023926 0.09762019664049149
0.8887903690338135 2.044001817703247 0.09731485694646835
0.0 0.0 0.0
1.2776869535446167 3.00992751121521 0.14276626706123352
1.2595189809799194 3.0034966468811035 0.14219921827316284
0.6438469290733337 1.554323673248291 0.07345505058765411
0.6336541175842285 1.5487961769104004 0.0730624794960022
0.6250188946723938 1.54691481590271 0.07284437865018845
0.6190037727355957 1.5514830350875854 0.07293161749839783
0.610763669013977 1.5504511594772339 0.07275713980197906
1.8329803943634033 4.713308334350586 0.22080135345458984
1.7998661994934082 4.688617706298828 0.21927466988563538
1.3302072286605835 3.5108749866485596 0.16392166912555695
1.3113768100738525 3.5072879791259766 0.16348546743392944
1.7373026609420776 4.708962917327881 0.219143807888031
0.9168018102645874 2.5187828540802 0.11703082174062729
0.9027644395828247 2.514296770095825 0.11663824319839478
0.8887837529182434 2.5097362995147705 0.11624567210674286
0.8702486753463745 2.4918971061706543 0.11524242907762527
0.8522115349769592 2.474889039993286 0.11428280174732208
0.8397989869117737 2.473853826522827 0.11406469345092773
0.8299479484558105 2.4803366661071777 0.1141955554485321
0.0 0.0 0.0
0.0 0.0 0.0
0.0 0.0 0.0
0.0 0.0 0.0
1.4464045763015747 4.657949924468994 0.21294987201690674
1.4266510009765625 4.6661272048950195 0.21303710341453552
0.6043769717216492 2.0080208778381348 0.0915571004152298
0.5973121523857117 2.016386032104492 0.09181880950927734
0.5871105194091797 2.0141775608062744 0.09160071611404419
0.5717071890830994 1.9936720132827759 0.09055385738611221
0.5567652583122253 1.9740320444107056 0.08955060690641403
0.5468116998672485 1.971629023551941 0.08933250606060028
0.5379409193992615 1.9730323553085327 0.08928889036178589
0.5285511612892151 1.9724656343460083 0.08915803581476212
0.9078595042228699 3.448089122772217 0.15567760169506073
0.8915550708770752 3.447181463241577 0.15545949339866638
1.176297903060913 4.631402015686035 0.20863153040409088
0.8466953039169312 3.3956987857818604 0.15279872715473175
0.8313958644866943 3.3974199295043945 0.15271148085594177
0.8151645660400391 3.39518666267395 0.15244975686073303
0.5811930298805237 2.468076705932617 0.11070600897073746
0.5704185962677002 2.4705891609191895 0.11070600897073746
0.5567667484283447 2.4603872299194336 0.11013895273208618
0.542133629322052 2.4452366828918457 0.10935381054878235
0.5274314284324646 2.4290292263031006 0.10852503776550293
0.5166200995445251 2.430330276489258 0.10848142206668854
0.5098767280578613 2.4511454105377197 0.10931018739938736
0.557540237903595 2.7401905059814453 0.1220906674861908
0.584172785282135 2.9366073608398438 0.13072730600833893
0.5707820057868958 2.9361863136291504 0.13059645891189575
0.8328478336334229 4.386380195617676 0.19493505358695984
0.8406481146812439 4.5353546142578125 0.20139071345329285
0.8283183574676514 4.580270290374756 0.20322273671627045
0.5071334838867188 2.8758456707000732 0.12749947607517242
0.4947497248649597 2.8790156841278076 0.12754309177398682
0.763181746006012 4.560174465179443 0.20187053084373474
0.7447225451469421 4.572335243225098 0.20226310193538666
0.7233583927154541 4.5666608810424805 0.20187053084373474
0.22540633380413055 1.4643417596817017 0.06468755006790161
0.22019632160663605 1.473215937614441 0.06503650546073914
0.21319268643856049 1.470207929611206 0.06486203521490097
0.20621949434280396 1.467166781425476 0.06468755006790161
0.20022007822990417 1.471022367477417 0.06481841206550598
0.19510385394096375 1.4817869663238525 0.06525460630655289
0.5747361779212952 4.517246246337891 0.1988171637058258
0.54759281873703 4.459223747253418 0.19615639746189117
0.5255470871925354 4.439743995666504 0.19519677758216858
0.5143141150474548 4.513463973999023 0.1983373761177063
0.497226357460022 4.539499282836914 0.19938422739505768
0.47637009620666504 4.5316901206970215 0.19894804060459137
0.19450980424880981 1.9313809871673584 0.08475247025489807
0.18655963242053986 1.9371834993362427 0.08497057110071182
0.17819681763648987 1.9389739036560059 0.08501418679952621
0.168080136179924 1.920823335647583 0.08418542146682739
0.3751648962497711 4.514122009277344 0.19777031242847443
0.35515129566192627 4.51173210144043 0.19759583473205566
0.14025716483592987 1.8869919776916504 0.08261512219905853
0.13209204375743866 1.888582706451416 0.08265874534845352
0.12639927864074707 1.9280205965042114 0.08435989916324615
0.13659238815307617 2.2326948642730713 0.09766381233930588
0.1528535783290863 2.6910948753356934 0.11768511682748795
0.14205153286457062 2.7096943855285645 0.11847025901079178
0.11569873988628387 2.4079253673553467 0.10525358468294144
0.10279353708028793 2.3535120487213135 0.10285451263189316
0.09507399052381516 2.418826103210449 0.10568977892398834
0.0958208292722702 2.7427124977111816 0.11982246488332748
0.08620312064886093 2.819995164871216 0.12318115681409836
0.07395020127296448 2.8223419189453125 0.12326839566230774
0.09421881288290024 4.314859867095947 0.18843576312065125
0.07776437699794769 4.451079845428467 0.19436800479888916
0.05861726030707359 4.472354888916016 0.19528400897979736
0.012935196049511433 1.4795340299606323 0.06460031121969223
0.0065231951884925365 1.489566683769226 0.06503650546073914
2.366586159041617e-05 1.4855848550796509 0.06486203521490097
-0.006480080075562 1.4905660152435303 0.06508012861013412
-0.01299248356372118 1.4915224313735962 0.06512374430894852
-0.05800456553697586 4.436394214630127 0.1937136948108673
-0.07760515064001083 4.4500837326049805 0.19432438910007477
-0.09713027626276016 4.4546966552734375 0.19454246759414673
-0.11648805439472198 4.451234340667725 0.19441162049770355
-0.1354210525751114 4.434706211090088 0.1937136948108673
-0.0 0.0 0.0
-0.07598186284303665 1.9346641302108765 0.08453437685966492
-0.08437906205654144 1.9333159923553467 0.08449075371026993
-0.09324511885643005 1.9419105052947998 0.08488333225250244
-0.10563758760690689 2.0163111686706543 0.08815478533506393
-0.13345952332019806 2.3509716987609863 0.10281089693307877
-0.0 0.0 0.0
-0.15429678559303284 2.3547022342681885 0.10302900522947311
-0.16408182680606842 2.3470301628112793 0.10272365808486938
-0.17313669621944427 2.3303513526916504 0.10202575474977493
-0.16590529680252075 2.1084680557250977 0.09234225004911423
-0.1593053787946701 1.9175610542297363 0.08401094377040863
-0.1651460826396942 1.8879854679107666 0.0827459767460823
-0.17319953441619873 1.8852572441101074 0.08265874534845352
-0.42316263914108276 4.395471096038818 0.1927976906299591
-0.44303783774375916 4.400540828704834 0.19310303032398224
-0.4624432921409607 4.400553226470947 0.19319027662277222
-0.4816397428512573 4.398493766784668 0.19319027662277222
-0.5010531544685364 4.3983354568481445 0.193277508020401
-0.5202395915985107 4.396107196807861 0.193277508020401
-0.5395378470420837 4.394786834716797 0.1933211237192154
-0.558456301689148 4.390408992767334 0.1932338923215866
-0.5773468017578125 4.38594913482666 0.19314664602279663
-0.5960743427276611 4.38041877746582 0.19301579892635345
-0.6149036288261414 4.375797748565674 0.19292856752872467
-0.6301205158233643 4.346377849578857 0.19175083935260773
-0.6061120629310608 4.056056022644043 0.17905758321285248
-0.6225883960723877 4.045473575592041 0.17870862782001495
-0.0 0.0 0.0
-0.5345474481582642 3.282593011856079 0.1452089548110962
-0.5458974838256836 3.2624926567077637 0.14442379772663116
-0.559958279132843 3.2590951919555664 0.14438018202781677
-0.5717447996139526 3.242846727371216 0.1437695026397705
-0.7730674743652344 4.2755327224731445 0.18970070779323578
-0.5197396874427795 2.804529905319214 0.12453334778547287
-0.5323443412780762 2.8041985034942627 0.12462059408426285
-0.5443841814994812 2.800868511199951 0.12457697838544846
-0.834315299987793 4.194759845733643 0.18673460185527802
-0.8516144752502441 4.186184406280518 0.18651649355888367
-0.8698718547821045 4.18242883682251 0.18651649355888367
-0.8868665099143982 4.172729969024658 0.18625478446483612
-0.04281571879982948 0.1972135454416275 0.008811116218566895
-0.043243374675512314 0.19507411122322083 0.008723877370357513
-0.04585789516568184 0.20267891883850098 0.009072832763195038
-0.047640684992074966 0.20637068152427673 0.0092473104596138
-0.04647999629378319 0.1974087357521057 0.008854735642671585
-0.0482737272977829 0.20108984410762787 0.009029214270412922
-0.05081278085708618 0.20767025649547577 0.009334549307823181
-0.049059998244047165 0.1967834234237671 0.008854735642671585
-0.052868980914354324 0.20818723738193512 0.009378168731927872
-0.05777885764837265 0.22343026101589203 0.010076078586280346
-0.05849884822964668 0.2222098857164383 0.010032459162175655
-0.061794865876436234 0.23063763976097107 0.01042503397911787
-0.06201232224702835 0.22747419774532318 0.010294175706803799
-0.06220336630940437 0.22431330382823944 0.010163317434489727
-0.06399501115083694 0.22692438960075378 0.010294175706803799
-0.06443382054567337 0.22472229599952698 0.010206936858594418
-0.06457509845495224 0.22156158089637756 0.010076078586280346
-0.06610867381095886 0.22319354116916656 0.010163317434489727
-0.06708190590143204 0.22290296852588654 0.010163317434489727
-0.06834593415260315 0.223563551902771 0.010206936858594418
-0.07080196589231491 0.22803378105163574 0.01042503397911787
-0.07149586081504822 0.22676986455917358 0.01038141455501318
-0.07218008488416672 0.22550426423549652 0.01033779513090849
-0.07378075271844864 0.22708748281002045 0.01042503397911787
-0.0744580402970314 0.2258145809173584 0.01038141455501318
-0.07417468726634979 0.2216978669166565 0.010206936858594418
-0.07449907809495926 0.21948003768920898 0.010119698010385036
-0.07513078302145004 0.21820826828479767 0.010076078586280346
-0.07608217000961304 0.21787837147712708 0.010076078586280346
-0.0783660039305687 0.22131133079528809 0.010250556282699108
-0.080681212246418 0.22472843527793884 0.01042503397911787
-0.07995261251926422 0.21968023478984833 0.010206936858594418
-0.08091037720441818 0.21932928264141083 0.010206936858594418
-0.08326602727174759 0.2227173000574112 0.01038141455501318
-0.08388308435678482 0.221417635679245 0.01033779513090849
-0.08377435803413391 0.21825142204761505 0.010206936858594418
-0.08617416024208069 0.22160831093788147 0.01038141455501318
-0.0882386863231659 0.22401882708072662 0.010512272827327251
-0.08847492933273315 0.2217758148908615 0.01042503397911787
-0.08831906318664551 0.21860873699188232 0.010294175706803799
-0.08927207440137863 0.2182212918996811 0.010294175706803799
-0.09060568362474442 0.21875271201133728 0.01033779513090849
-0.09117297828197479 0.21743395924568176 0.010294175706803799
-0.09134014695882797 0.21519480645656586 0.010206936858594418
-0.09227823466062546 0.21479420363903046 0.010206936858594418
-0.09241785854101181 0.2125571370124817 0.010119698010385036
-0.09374677389860153 0.21306632459163666 0.010163317434489727
-0.09670720994472504 0.21721865236759186 0.01038141455501318
-0.09806439280509949 0.21770553290843964 0.01042503397911787
-0.09859908372163773 0.2163664698600769 0.01038141455501318
-0.09996049106121063 0.21684147417545319 0.01042503397911787
-0.10132788121700287 0.21730871498584747 0.010468653403222561
-0.10099665820598602 0.2141537070274353 0.01033779513090849
-0.10063984990119934 0.2110057920217514 0.010206936858594418
-0.10286162048578262 0.21326421201229095 0.01033779513090849
-0.10379116982221603 0.2128133624792099 0.01033779513090849
-0.10383504629135132 0.2105664163827896 0.010250556282699108
-0.10609008371829987 0.21279361844062805 0.01038141455501318
-0.10746721178293228 0.21322083473205566 0.01042503397911787
-0.10567528009414673 0.20740889012813568 0.010163317434489727
-0.10749410092830658 0.20872218906879425 0.010250556282699108
-0.11117155104875565 0.21356822550296783 0.010512272827327251
-0.11024173349142075 0.20954449474811554 0.01033779513090849
-0.10740292072296143 0.2020045667886734 0.00998884066939354
-0.11064755916595459 0.2059343159198761 0.010206936858594418
-0.11249843239784241 0.20720554888248444 0.010294175706803799
-0.11436248570680618 0.20846450328826904 0.01038141455501318
-0.11527098715305328 0.20796352624893188 0.01038141455501318
-0.1137365996837616 0.20310021936893463 0.010163317434489727
-0.1175733357667923 0.20781923830509186 0.01042503397911787
-0.11649607867002487 0.20383472740650177 0.010250556282699108
-0.11738435924053192 0.20332448184490204 0.010250556282699108
-0.12028351426124573 0.20626245439052582 0.01042503397911787
-0.11814011633396149 0.200570747256279 0.010163317434489727
-0.11799255758523941 0.1983361691236496 0.010076078586280346
-0.11834229528903961 0.19696307182312012 0.010032459162175655
-0.12231016159057617 0.20156949758529663 0.010294175706803799
-0.12684239447116852 0.20699676871299744 0.010599511675536633
-0.1245901957154274 0.20134404301643372 0.01033779513090849
-0.12493813037872314 0.19995124638080597 0.010294175706803799
-0.12154465913772583 0.19264473021030426 0.009945221245288849
-0.11647957563400269 0.18284398317337036 0.009465407580137253
-0.12159981578588486 0.18905599415302277 0.009814362041652203
-0.12242355942726135 0.18852362036705017 0.009814362041652203
-0.12324497848749161 0.18798765540122986 0.009814362041652203
-0.12296125292778015 0.18578191101551056 0.009727123193442822
-0.11822044849395752 0.17693674564361572 0.00929092988371849
-0.12457779794931412 0.1847018152475357 0.009727123193442822
-0.1304427981376648 0.19158881902694702 0.010119698010385036
-0.12675070762634277 0.1844310164451599 0.009770742617547512
-0.12755422294139862 0.18387620151042938 0.009770742617547512
-0.13122038543224335 0.18740981817245483 0.00998884066939354
-0.12973053753376007 0.1835719794034958 0.009814362041652203
-0.13169054687023163 0.184630885720253 0.009901601821184158
-0.1359969675540924 0.18891941010951996 0.010163317434489727
-0.14034323394298553 0.19317376613616943 0.01042503397911787
-0.14059403538703918 0.19175386428833008 0.01038141455501318
-0.14202362298965454 0.19194170832633972 0.01042503397911787
-0.14644619822502136 0.19612319767475128 0.010686749592423439
-0.14249072968959808 0.1890992522239685 0.01033779513090849
-0.14029096066951752 0.18449944257736206 0.010119698010385036
-0.1398783028125763 0.18230032920837402 0.010032459162175655
-0.13944917917251587 0.18010838329792023 0.009945221245288849
-0.14146381616592407 0.18107274174690247 0.010032459162175655
-0.14472651481628418 0.18359211087226868 0.010206936858594418
-0.14614811539649963 0.1837407499551773 0.010250556282699108
-0.14819905161857605 0.18465963006019592 0.01033779513090849
-0.14900337159633636 0.18401123583316803 0.01033779513090849
-0.14917275309562683 0.182585671544075 0.010294175706803799
-0.15123891830444336 0.1834748387336731 0.01038141455501318
-0.15267685055732727 0.18358133733272552 0.01042503397911787
-0.15283425152301788 0.1821480691432953 0.01038141455501318
-0.15491855144500732 0.18300452828407288 0.010468653403222561
-0.15636439621448517 0.18308652937412262 0.010512272827327251
-0.15846601128578186 0.18391624093055725 0.010599511675536633
-0.15992240607738495 0.18397705256938934 0.010643131099641323
-0.1600649207830429 0.1825263798236847 0.010599511675536633
-0.15821191668510437 0.1788332164287567 0.01042503397911787
-0.1569950133562088 0.17590510845184326 0.010294175706803799
-0.15842951834201813 0.17596086859703064 0.01033779513090849
-0.1585240662097931 0.17452839016914368 0.010294175706803799
-0.15860913693904877 0.17309845983982086 0.010250556282699108
-0.15936291217803955 0.17240475118160248 0.010250556282699108
-0.1601136326789856 0.17170776426792145 0.010250556282699108
-0.1601768136024475 0.17027981579303741 0.010206936858594418
-0.16091826558113098 0.16957929730415344 0.010206936858594418
-0.16372917592525482 0.1710406243801117 0.01033779513090849
-0.16377992928028107 0.16960592567920685 0.010294175706803799
-0.16521552205085754 0.1696053296327591 0.01033779513090849
-0.16735444962978363 0.17030800879001617 0.01042503397911787
-0.16739261150360107 0.16886663436889648 0.01038141455501318
-0.16883426904678345 0.16884110867977142 0.01042503397911787
-0.16956935822963715 0.16810283064842224 0.01042503397911787
-0.17030122876167297 0.16736134886741638 0.01042503397911787
-0.17389227449893951 0.1694052368402481 0.010599511675536633
-0.17750434577465057 0.17142093181610107 0.010773989371955395
-0.1789722740650177 0.17133566737174988 0.010817608796060085
-0.18696486949920654 0.17743028700351715 0.011253802105784416
-0.19865219295024872 0.18688097596168518 0.0119080925360322
-0.1987350881099701 0.1853310614824295 0.011864474043250084
-0.19880825281143188 0.18378400802612305 0.011820854619145393
-0.20255450904369354 0.18561464548110962 0.011995331384241581
-0.1946350485086441 -0.17835015058517456 0.023096270859241486
-0.19751262664794922 -0.18257878720760345 0.023532049730420113
-0.19598554074764252 -0.18275946378707886 0.023444894701242447
-0.19228385388851166 -0.1808825582265854 0.023096270859241486
-0.19221536815166473 -0.18240554630756378 0.02318342588841915
-0.18638035655021667 -0.17842033505439758 0.022573336958885193
-0.18201705813407898 -0.1757717877626419 0.022137558087706566
-0.1755397766828537 -0.17100322246551514 0.021440312266349792
-0.1740814447402954 -0.17106929421424866 0.021353155374526978
-0.17404083907604218 -0.17252855002880096 0.021440312266349792
-0.1725819706916809 -0.17258189618587494 0.021353155374526978
-0.1739313304424286 -0.1754557341337204 0.021614624187350273
-0.17386233806610107 -0.1769234985113144 0.02170177921652794
-0.1723935902118683 -0.1769668608903885 0.021614624187350273
-0.16954374313354492 -0.17556756734848022 0.021353155374526978
-0.1680871993303299 -0.1755860447883606 0.02126600220799446
-0.16800519824028015 -0.17704039812088013 0.021353155374526978
-0.1685962677001953 -0.179222971200943 0.021527467295527458
-0.16713325679302216 -0.17922832071781158 0.021440312266349792
-0.16499722003936768 -0.17849281430244446 0.02126600220799446
-0.16556285321712494 -0.18067997694015503 0.021440312266349792
-0.16410312056541443 -0.18066325783729553 0.021353155374526978
-0.1613135188817978 -0.17915663123130798 0.02109169028699398
-0.1618569791316986 -0.18134520947933197 0.02126600220799446
-0.16106417775154114 -0.1820497214794159 0.02126600220799446
-0.15961147844791412 -0.18200178444385529 0.021178845316171646
-0.15881583094596863 -0.18269647657871246 0.021178845316171646
-0.15671660006046295 -0.18187831342220306 0.021004533395171165
-0.15462756156921387 -0.18104536831378937 0.020830221474170685
-0.15576714277267456 -0.18399931490421295 0.02109169028699398
-0.15624350309371948 -0.1862034797668457 0.02126600220799446
-0.15606655180454254 -0.18764935433864594 0.021353155374526978
-0.15714728832244873 -0.1906345933675766 0.021614624187350273
-0.1575745791196823 -0.19286133348941803 0.021788934245705605
-0.15986622869968414 -0.19741801917552948 0.02222471497952938
-0.1621210128068924 -0.2019982486963272 0.022660493850708008
-0.1643388271331787 -0.20660185813903809 0.023096270859241486
-0.1677529662847519 -0.212793231010437 0.023706361651420593
-0.16620959341526031 -0.21273817121982574 0.023619206622242928
-0.16527977585792542 -0.21346136927604675 0.023619206622242928
-0.16677257418632507 -0.217341810464859 0.02396782860159874
-0.16823463141918182 -0.22123929858207703 0.0243164524435997
-0.1642700731754303 -0.21799328923225403 0.023880673572421074
-0.15854893624782562 -0.21232230961322784 0.02318342588841915
-0.15643587708473206 -0.21141047775745392 0.02300911396741867
-0.1561010330915451 -0.21289445459842682 0.023096270859241486
-0.157512828707695 -0.21679729223251343 0.023444894701242447
-0.1542372703552246 -0.21424855291843414 0.023096270859241486
-0.1480945199728012 -0.20762033760547638 0.022311870008707047
-0.14833711087703705 -0.20989161729812622 0.022486181929707527
-0.15141963958740234 -0.21624909341335297 0.023096270859241486
-0.1464998424053192 -0.21117809414863586 0.022486181929707527
-0.14557702839374542 -0.21181529760360718 0.022486181929707527
-0.14240875840187073 -0.20915468037128448 0.022137558087706566
-0.13703826069831848 -0.20316700637340546 0.021440312266349792
-0.13947123289108276 -0.20873284339904785 0.021963246166706085
-0.13855914771556854 -0.20933941006660461 0.021963246166706085
-0.1349133849143982 -0.20577646791934967 0.021527467295527458
-0.13347166776657104 -0.20552769303321838 0.021440312266349792
-0.1352682113647461 -0.21029730141162872 0.02187609113752842
-0.13167303800582886 -0.20668460428714752 0.021440312266349792
-0.1281120479106903 -0.20304462313652039 0.021004533395171165
-0.12669698894023895 -0.202756866812706 0.0209173783659935
-0.1289563626050949 -0.20839042961597443 0.021440312266349792
-0.1306484341621399 -0.21319811046123505 0.02187609113752842
-0.12868334352970123 -0.21206282079219818 0.02170177921652794
-0.12673066556453705 -0.2109144628047943 0.021527467295527458
-0.1242811381816864 -0.20889702439308167 0.02126600220799446
-0.12235725671052933 -0.20772060751914978 0.02109169028699398
-0.12094788998365402 -0.20739196240901947 0.021004533395171165
-0.12004182487726212 -0.207917720079422 0.021004533395171165
-0.12111079692840576 -0.21189908683300018 0.021353155374526978
-0.12067561596632004 -0.21329255402088165 0.021440312266349792
-0.11731000244617462 -0.209471195936203 0.021004533395171165
-0.11494600027799606 -0.2073671817779541 0.02074306644499302
-0.11308179050683975 -0.20611996948719025 0.02056875452399254
-0.11408273130655289 -0.2101133167743683 0.0209173783659935
-0.11505094170570374 -0.21411924064159393 0.02126600220799446
-0.11458326876163483 -0.21549877524375916 0.021353155374526978
-0.11271420866250992 -0.21423345804214478 0.021178845316171646
-0.10671844333410263 -0.20500324666500092 0.020220132544636726
-0.10582294315099716 -0.20546692609786987 0.020220132544636726
-0.10899580270051956 -0.21391524374485016 0.021004533395171165
-0.1058194562792778 -0.20994089543819427 0.02056875452399254
-0.10401341319084167 -0.20861755311489105 0.020394442602992058
-0.10486458986997604 -0.21264323592185974 0.02074306644499302
-0.10437247902154922 -0.21399414539337158 0.020830221474170685
-0.10387056320905685 -0.21534478664398193 0.0209173783659935
-0.10335883498191833 -0.21669510006904602 0.021004533395171165
-0.10113750398159027 -0.2144409716129303 0.02074306644499302
-0.09809581935405731 -0.21036593616008759 0.020307287573814392
-0.09842820465564728 -0.21350602805614471 0.02056875452399254
-0.09708257019519806 -0.2130269706249237 0.020481599494814873
-0.09615214914083481 -0.21344853937625885 0.020481599494814873
-0.0940043181180954 -0.2111358344554901 0.020220132544636726
-0.09227973967790604 -0.20972032845020294 0.020045820623636246
-0.09334997087717056 -0.21468883752822876 0.020481599494814873
-0.09359205514192581 -0.21783997118473053 0.02074306644499302
-0.09186217933893204 -0.2164122760295868 0.02056875452399254
-0.08899082988500595 -0.21221758425235748 0.02013297565281391
-0.0918763056397438 -0.22180747985839844 0.021004533395171165
-0.09166204929351807 -0.22405029833316803 0.021178845316171646
-0.0880712941288948 -0.21798253059387207 0.02056875452399254
-0.09007253497838974 -0.22576692700386047 0.02126600220799446
-0.0883563756942749 -0.22430403530597687 0.02109169028699398
-0.08340515196323395 -0.21447435021400452 0.02013297565281391
-0.08425358682870865 -0.21948637068271637 0.02056875452399254
-0.08753044158220291 -0.23103082180023193 0.021614624187350273
-0.08896370977163315 -0.23794230818748474 0.02222471497952938
-0.08551102876663208 -0.231785848736763 0.021614624187350273
