# .PCD v0.7 - Point Cloud Data file format
VERSION 0.7
FIELDS x y z
SIZE 4 4 4
TYPE F F F
COUNT 1 1 1
WIDTH 835
HEIGHT 1
VIEWPOINT 0 0 0 1 0 0 0
POINTS 835
DATA ascii
6.325047492980957 5.354427814483643 0.36182281374931335
6.311500549316406 5.390409469604492 0.3623898923397064
3.146230697631836 2.710904836654663 0.1813257932662964
3.140404224395752 2.7298502922058105 0.1816747486591339
2.48774790763855 2.181647300720215 0.14446742832660675
2.4767086505889893 2.191157102584839 0.14438018202781677
2.4879941940307617 2.220569610595703 0.14560151100158691
2.5012974739074707 2.2521274089813232 0.14695371687412262
2.4981026649475098 2.2690653800964355 0.14734630286693573
3.6217801570892334 3.3186748027801514 0.2144765406847
3.6146013736724854 3.3412272930145264 0.21491272747516632
0.0 0.0 0.0
2.9041929244995117 2.7319297790527344 0.17408497631549835
2.884998321533203 2.737698793411255 0.17364878952503204
5.464593887329102 5.231091022491455 0.33028602600097656
5.364101409912109 5.179934024810791 0.3255751132965088
0.0 0.0 0.0
1.7287182807922363 1.6987676620483398 0.10582064092159271
1.7262561321258545 1.7112176418304443 0.10612597316503525
1.7138280868530273 1.713788628578186 0.10582064092159271
3.1805617809295654 3.2083652019500732 0.19724687933921814
5.055108070373535 5.143996238708496 0.3148883581161499
4.960113048553467 5.091579914093018 0.3103519380092621
4.9545063972473145 5.130422115325928 0.31139883399009705
2.1195688247680664 2.214078664779663 0.13382428884506226
2.08581805229187 2.1979422569274902 0.1322976052761078
2.068678140640259 2.1990180015563965 0.1318177878856659
4.783132076263428 5.1291608810424805 0.3062081038951874
2.4651238918304443 2.6666929721832275 0.1585564762353897
2.458864450454712 2.6833159923553467 0.15890543162822723
0.0 0.0 0.0
4.579242706298828 5.0856428146362305 0.2987928092479706
4.551021575927734 5.098867416381836 0.29840025305747986
4.512180328369141 5.09997034072876 0.2973097562789917
4.4727582931518555 5.100080490112305 0.29617565870285034
3.1736578941345215 3.650787830352783 0.21120506525039673
3.175306558609009 3.685035467147827 0.21238280832767487
3.1948835849761963 3.7406373023986816 0.21478186547756195
4.279785633087158 5.05536413192749 0.28919655084609985
0.0 0.0 0.0
0.0 0.0 0.0
0.0 0.0 0.0
4.127694606781006 5.051921367645264 0.2848345935344696
1.77364981174469 2.190220832824707 0.12305029481649399
1.757197618484497 2.18936824798584 0.12257048487663269
1.7264822721481323 2.17043137550354 0.12108741700649261
1.680503487586975 2.131654977798462 0.11851388216018677
1.6367415189743042 2.0948808193206787 0.1160711869597435
1.2758901119232178 1.647793173789978 0.09099005162715912
1.2632144689559937 1.6462112665176392 0.0905974730849266
1.2584383487701416 1.6548882722854614 0.09077195078134537
1.255414366722107 1.6659483909606934 0.0910772830247879
0.0 0.0 0.0
3.674945116043091 4.966274738311768 0.26974231004714966
3.6473331451416016 4.974205017089844 0.26930609345436096
3.612675428390503 4.972290992736816 0.26834648847579956
3.576352834701538 4.967737197875977 0.2672559916973114
0.0 0.0 0.0
0.0 0.0 0.0
0.0 0.0 0.0
2.506213665008545 3.612595319747925 0.1919689178466797
2.4960858821868896 3.6317296028137207 0.1924051195383072
2.1692752838134766 3.1859209537506104 0.168283611536026
2.1290957927703857 3.156428337097168 0.16623349487781525
2.119743585586548 3.1723337173461914 0.16658245027065277
1.7491114139556885 2.6425461769104004 0.13836070895195007
1.7036020755767822 2.598353147506714 0.13565629720687866
1.6770129203796387 2.582301616668701 0.13443496823310852
1.653839111328125 2.571108818054199 0.13347533345222473
3.126317024230957 4.907196998596191 0.25403931736946106
1.3215981721878052 2.0945470333099365 0.10813246667385101
1.3161523342132568 2.106224298477173 0.10843779891729355
1.3032697439193726 2.1060001850128174 0.10813246667385101
2.534891366958618 4.136447429656982 0.2118157595396042
2.464989423751831 4.06205940246582 0.20745380222797394
2.2223799228668213 3.6985535621643066 0.18839214742183685
0.0 0.0 0.0
1.2068181037902832 2.0487101078033447 0.10381414741277695
1.1983708143234253 2.054819345474243 0.10385776311159134
1.1893936395645142 2.060028553009033 0.10385776311159134
2.773751974105835 4.852912902832031 0.24405048787593842
1.7568113803863525 3.1050593852996826 0.15576483309268951
1.7456873655319214 3.117053747177124 0.15598294138908386
2.6809306144714355 4.8363776206970215 0.24143332242965698
0.8592099547386169 1.566084384918213 0.07799147069454193
0.8561822175979614 1.576842188835144 0.07834042608737946
0.8521311283111572 1.5858432054519653 0.078602135181427
0.8480177521705627 1.5948388576507568 0.07886385172605515
2.13844633102417 4.064387798309326 0.20051832497119904
2.1165401935577393 4.065704345703125 0.20012575387954712
1.3261473178863525 2.5747902393341064 0.12645260989665985
1.3085501194000244 2.5680902004241943 0.12584194540977478
1.2802444696426392 2.53987455368042 0.12418439984321594
1.262909173965454 2.532919406890869 0.12357372790575027
1.2505196332931519 2.535717725753784 0.1234428733587265
2.3369863033294678 4.791369438171387 0.23275306820869446
1.6892986297607422 3.5021586418151855 0.16976666450500488
1.680023193359375 3.522120237350464 0.17037732899188995
2.2173879146575928 4.701371669769287 0.22695167362689972
2.1846089363098145 4.684744358062744 0.225686714053154
2.1888253688812256 4.747760772705078 0.22826026380062103
2.174717664718628 4.771811485290527 0.2289581596851349
2.1464900970458984 4.764859199523926 0.22817303240299225
0.9126888513565063 2.0498578548431396 0.09796914458274841
0.9021265506744385 2.0501630306243896 0.09779466688632965
0.8919773697853088 2.0513312816619873 0.09766381233930588
0.0 0.0 0.0
1.2804195880889893 3.0163650512695312 0.14307159185409546
1.257973551750183 2.9998114109039307 0.14202472567558289
0.6388766169548035 1.5423247814178467 0.07288800179958344
0.6336541175842285 1.5487961769104004 0.0730624794960022
0.6283872723579407 1.5552514791488647 0.07323695719242096
0.6215953230857849 1.5579785108566284 0.07323695719242096
0.6096651554107666 1.5476624965667725 0.07262628525495529
1.8329803943634033 4.713308334350586 0.22080135345458984
1.7998661994934082 4.688617706298828 0.21927466988563538
1.3273756504058838 3.503401279449463 0.16357271373271942
1.3138259649276733 3.513838291168213 0.16379080712795258
1.7362654209136963 4.706151485443115 0.21901296079158783
0.9168018102645874 2.5187828540802 0.11703082174062729
0.9047901034355164 2.5199382305145264 0.11689995974302292
0.8891172409057617 2.5106780529022217 0.11628928780555725
0.8695898652076721 2.4900107383728027 0.1151551827788353
0.8522115349769592 2.474889039993286 0.11428280174732208
0.8407624363899231 2.476691722869873 0.1141955554485321
0.8267778158187866 2.470862627029419 0.1137593612074852
0.0 0.0 0.0
0.0 0.0 0.0
0.0 0.0 0.0
0.0 0.0 0.0
1.4455156326293945 4.655087471008301 0.21281899511814117
1.4254825115203857 4.6623053550720215 0.21286261081695557
0.6049528121948242 2.009934186935425 0.09164433181285858
0.5961771011352539 2.01255464553833 0.09164433181285858
0.5854330658912659 2.0084228515625 0.09133899956941605
0.568953275680542 1.9840683937072754 0.09011765569448471
0.5556804537773132 1.9701857566833496 0.08937612175941467
0.5473456978797913 1.9735544919967651 0.08941975235939026
0.5387293100357056 1.9759238958358765 0.08941975235939026
0.5295854806900024 1.9763256311416626 0.08933250606060028
0.9058244228363037 3.4403598308563232 0.1553286463022232
0.8905543684959412 3.443312406539917 0.1552850306034088
1.176297903060913 4.631402015686035 0.20863153040409088
0.8471786379814148 3.397637367248535 0.15288595855236053
0.8313958644866943 3.3974199295043945 0.15271148085594177
0.8160975575447083 3.3990724086761475 0.1526242345571518
0.5802770853042603 2.4641871452331543 0.1105315312743187
0.5704185962677002 2.4705891609191895 0.11070600897073746
0.5561052560806274 2.4574639797210693 0.11000809818506241
0.5406198501586914 2.4384090900421143 0.10904847085475922
0.5270074009895325 2.427076578140259 0.10843779891729355
0.5168278217315674 2.431307554244995 0.10852503776550293
0.5096732974052429 2.450167179107666 0.10926657170057297
0.5710853934288025 2.8067617416381836 0.12505678832530975
0.584172785282135 2.9366073608398438 0.13072730600833893
0.5692568421363831 2.9283406734466553 0.13024748861789703
0.8350841999053955 4.398158073425293 0.19545848667621613
0.8415585160255432 4.540266036987305 0.2016088217496872
0.8284960985183716 4.581253528594971 0.20326635241508484
0.5090420246124268 2.8866684436798096 0.12797929346561432
0.49322694540023804 2.87015438079834 0.1271505206823349
0.7630168795585632 4.559189319610596 0.20182691514492035
0.7440801858901978 4.5683913230896 0.2020886391401291
0.5326718688011169 3.362830400466919 0.14865487813949585
0.2258623242378235 1.467303991317749 0.06481841206550598
0.22019632160663605 1.473215937614441 0.06503650546073914
0.2133360505104065 1.4711965322494507 0.06490565091371536
0.2069147676229477 1.4721133708953857 0.06490565091371536
0.20048955082893372 1.4730021953582764 0.06490565091371536
0.0 0.0 0.0
0.5744839906692505 4.515264511108398 0.19872993230819702
0.546618640422821 4.451291084289551 0.19580744206905365
0.5254295468330383 4.438751697540283 0.1951531320810318
0.5146534442901611 4.516441345214844 0.19846822321414948
0.4971175789833069 4.538506031036377 0.1993406116962433
0.47626563906669617 4.530696392059326 0.19890442490577698
0.19471001625061035 1.9333689212799072 0.08483970910310745
0.18636809289455414 1.9351946115493774 0.08488333225250244
0.17783108353614807 1.9349944591522217 0.08483970910310745
0.16982190310955048 1.9407281875610352 0.0850578099489212
0.3750821053981781 4.513125896453857 0.19772668182849884
0.3549945056438446 4.509740352630615 0.19750860333442688
0.14077553153038025 1.8939661979675293 0.08292046189308167
0.13271939754486084 1.8975521326065063 0.08305131644010544
0.12705282866954803 1.937989592552185 0.08479609340429306
0.13799552619457245 2.2556300163269043 0.09866705536842346
0.15449656546115875 2.7200207710266113 0.11895007640123367
0.14246995747089386 2.7176759243011475 0.1188192218542099
0.11531516164541245 2.399942398071289 0.10490463674068451
0.10270635783672333 2.351516008377075 0.10276728123426437
0.09507399052381516 2.418826103210449 0.10568977892398834
0.09637894481420517 2.7586874961853027 0.12052037566900253
0.08629469573497772 2.822990894317627 0.12331201136112213
0.07413337379693985 2.8293328285217285 0.12357372790575027
0.09424062073230743 4.315858364105225 0.18847937881946564
0.07785163819789886 4.4560747146606445 0.19458609819412231
0.058591078966856 4.470357418060303 0.19519677758216858
0.038989003747701645 4.45958137512207 0.1947169452905655
0.006553820334374905 1.496559977531433 0.06534184515476227
2.388867324043531e-05 1.499571442604065 0.06547269970178604
-0.006484422832727432 1.4915649890899658 0.06512374430894852
-0.012940270826220512 1.4855284690856934 0.06486203521490097
-0.05809599906206131 4.443387508392334 0.19401904940605164
-0.07760515064001083 4.4500837326049805 0.19432438910007477
-0.0969560518860817 4.446706295013428 0.1941935122013092
-0.11643578857183456 4.449236869812012 0.19432438910007477
-0.13554301857948303 4.4387006759643555 0.19388818740844727
-0.0 0.0 0.0
-0.0755113884806633 1.9226847887039185 0.08401094377040863
-0.08450975269079208 1.9363102912902832 0.0846216157078743
-0.09324511885643005 1.9419105052947998 0.08488333225250244
-0.10563758760690689 2.0163111686706543 0.08815478533506393
-0.13368600606918335 2.354961395263672 0.10298537462949753
-0.0 0.0 0.0
-0.15449275076389313 2.3576927185058594 0.10315985232591629
-0.16422118246555328 2.3490233421325684 0.10281089693307877
-0.173358753323555 2.3333399295806885 0.10215660184621811
-0.1672375500202179 2.125399589538574 0.09308377653360367
-0.15938808023929596 1.9185566902160645 0.08405455946922302
-0.16566841304302216 1.8939570188522339 0.08300770074129105
-0.17338232696056366 1.88724684715271 0.0827459767460823
-0.42354559898376465 4.399448871612549 0.19297218322753906
-0.4433380663394928 4.403522968292236 0.1932338923215866
-0.4626520872116089 4.40254020690918 0.193277508020401
-0.4816397428512573 4.398493766784668 0.19319027662277222
-0.5009400844573975 4.397342681884766 0.1932338923215866
-0.5200048089027405 4.394123077392578 0.19319027662277222
-0.5390508770942688 4.390820503234863 0.19314664602279663
-0.5582041144371033 4.388426780700684 0.19314664602279663
-0.5773468017578125 4.38594913482666 0.19314664602279663
-0.596747875213623 4.385368347167969 0.1932338923215866
-0.615737795829773 4.3817338943481445 0.19319027662277222
-0.6312671899795532 4.354287624359131 0.19209979474544525
-0.6067027449607849 4.060008525848389 0.17923207581043243
-0.6231962442398071 4.0494232177734375 0.1788831204175949
-0.7063357830047607 4.460114002227783 0.19715963304042816
-0.5308542251586914 3.259913444519043 0.144205704331398
-0.5447433590888977 3.2555954456329346 0.14411845803260803
-0.5597891211509705 3.258110761642456 0.14433656632900238
-0.5717447996139526 3.242846727371216 0.1437695026397705
-0.7734230160713196 4.277499198913574 0.18978796899318695
-0.5186474323272705 2.7986361980438232 0.12427164614200592
-0.5315990447998047 2.8002724647521973 0.12444611638784409
-0.5441935658454895 2.7998876571655273 0.12453334778547287
-0.8341204524040222 4.193779945373535 0.18669098615646362
-0.8520128726959229 4.188142776489258 0.18660375475883484
-0.8706856369972229 4.186341285705566 0.18669098615646362
-0.888735830783844 4.181525230407715 0.18664737045764923
-0.04239179939031601 0.1952609419822693 0.008723877370357513
-0.042810942977666855 0.19312337040901184 0.008636639453470707
-0.04519648104906082 0.19975565373897552 0.008941974490880966
-0.048090122640132904 0.2083175778388977 0.009334549307823181
-0.04854068532586098 0.20616084337234497 0.0092473104596138
-0.04734090343117714 0.19720405340194702 0.008854735642671585
-0.049150679260492325 0.20087729394435883 0.009029214270412922
-0.05196009576320648 0.2084159404039383 0.009378168731927872
-0.054836198687553406 0.21593374013900757 0.009727123193442822
-0.056528232991695404 0.21859411895275116 0.009857981465756893
-0.057990167289972305 0.22027763724327087 0.009945221245288849
-0.061794865876436234 0.23063763976097107 0.01042503397911787
-0.0633261427283287 0.23229356110095978 0.010512272827327251
-0.06353819370269775 0.22912687063217163 0.01038141455501318
-0.06426617503166199 0.22788593173027039 0.01033779513090849
-0.06443382054567337 0.22472229599952698 0.010206936858594418
-0.06485464423894882 0.22252072393894196 0.010119698010385036
-0.06554122269153595 0.22127771377563477 0.010076078586280346
-0.06736981123685837 0.22385963797569275 0.010206936858594418
-0.06834593415260315 0.223563551902771 0.010206936858594418
-0.06961699575185776 0.22421732544898987 0.010250556282699108
-0.07119546085596085 0.22581705451011658 0.01033779513090849
-0.07218008488416672 0.22550426423549652 0.01033779513090849
-0.0734720379114151 0.22613731026649475 0.01038141455501318
-0.07414519786834717 0.22486579418182373 0.01033779513090849
-0.07512564957141876 0.22454014420509338 0.01033779513090849
-0.0770680159330368 0.22704830765724182 0.010468653403222561
-0.07773271203041077 0.22576525807380676 0.01042503397911787
-0.07707025110721588 0.2207079529762268 0.010206936858594418
-0.0783660039305687 0.22131133079528809 0.010250556282699108
-0.08000605553388596 0.2228478640317917 0.01033779513090849
-0.08063596487045288 0.2215578407049179 0.010294175706803799
-0.08160191774368286 0.22120389342308044 0.010294175706803799
-0.08291617780923843 0.22178152203559875 0.01033779513090849
-0.08317520469427109 0.21954911947250366 0.010250556282699108
-0.08377435803413391 0.21825142204761505 0.010206936858594418
-0.08617416024208069 0.22160831093788147 0.01038141455501318
-0.0871402770280838 0.22123019397258759 0.01038141455501318
-0.08847492933273315 0.2217758148908615 0.01042503397911787
-0.08944176137447357 0.22138766944408417 0.01042503397911787
-0.08965034037828445 0.2191459685564041 0.01033779513090849
-0.09022338688373566 0.21782970428466797 0.010294175706803799
-0.09001399576663971 0.21466997265815735 0.010163317434489727
-0.08977877348661423 0.21151624619960785 0.010032459162175655
-0.0914895310997963 0.21295836567878723 0.010119698010385036
-0.09401126950979233 0.2162219136953354 0.010294175706803799
-0.09495381265878677 0.2158096581697464 0.010294175706803799
-0.09589455276727676 0.2153933048248291 0.010294175706803799
-0.09683346003293991 0.2149728387594223 0.010294175706803799
-0.09818480908870697 0.21545737981796265 0.01033779513090849
-0.0991239994764328 0.21502690017223358 0.01033779513090849
-0.10006128251552582 0.2145923525094986 0.01033779513090849
-0.10270123928785324 0.2177681177854538 0.010512272827327251
-0.10408053547143936 0.21821966767311096 0.010555892251431942
-0.10503169894218445 0.21776345372200012 0.010555892251431942
-0.10598085820674896 0.2173030972480774 0.010555892251431942
-0.10339319705963135 0.20967039465904236 0.010206936858594418
-0.10430706292390823 0.20921726524829865 0.010206936858594418
-0.10746721178293228 0.21322083473205566 0.01042503397911787
-0.10885007679462433 0.21364006400108337 0.010468653403222561
-0.10978121310472488 0.2131630778312683 0.010468653403222561
-0.10978766530752182 0.2109096795320511 0.01038141455501318
-0.11117204278707504 0.21131281554698944 0.01042503397911787
-0.11115498095750809 0.20906148850917816 0.01033779513090849
-0.10875614732503891 0.20241406559944153 0.010032459162175655
-0.11154505610466003 0.20544956624507904 0.010206936858594418
-0.11628454923629761 0.21196812391281128 0.010555892251431942
-0.11672399193048477 0.21058492362499237 0.010512272827327251
-0.11422473937273026 0.20397189259529114 0.010206936858594418
-0.11412975937128067 0.20173248648643494 0.010119698010385036
-0.11649607867002487 0.20383472740650177 0.010250556282699108
-0.11588583141565323 0.20072884857654572 0.010119698010385036
-0.11776712536811829 0.20194734632968903 0.010206936858594418
-0.11814011633396149 0.200570747256279 0.010163317434489727
-0.11901413649320602 0.2000533640384674 0.010163317434489727
-0.12040042877197266 0.20038853585720062 0.010206936858594418
-0.11920057237148285 0.19644483923912048 0.010032459162175655
-0.12162254750728607 0.19847838580608368 0.010163317434489727
-0.12196170538663864 0.19709627330303192 0.010119698010385036
-0.12334993481636047 0.1974094957113266 0.010163317434489727
-0.12207774817943573 0.193489670753479 0.00998884066939354
-0.12345760315656662 0.1937977522611618 0.010032459162175655
-0.12808513641357422 0.19913898408412933 0.01033779513090849
-0.1262322962284088 0.19438880681991577 0.010119698010385036
-0.12762701511383057 0.1946716606616974 0.010163317434489727
-0.1290266066789627 0.1949460357427597 0.010206936858594418
-0.12654583156108856 0.18939706683158875 0.009945221245288849
-0.1256950944662094 0.18635833263397217 0.009814362041652203
-0.12538251280784607 0.18415649235248566 0.009727123193442822
-0.1261848509311676 0.18360765278339386 0.009727123193442822
-0.12356815487146378 0.17813007533550262 0.009465407580137253
-0.12720927596092224 0.18168114125728607 0.009683504700660706
-0.13434317708015442 0.19009898602962494 0.010163317434489727
-0.1322706788778305 0.18544423580169678 0.009945221245288849
-0.13366225361824036 0.18567615747451782 0.00998884066939354
-0.13858160376548767 0.19074898958206177 0.010294175706803799
-0.14295697212219238 0.19497662782669067 0.010555892251431942
-0.1461832970380783 0.19756340980529785 0.01073036901652813
-0.14525072276592255 0.1945222020149231 0.010599511675536633
-0.14369319379329681 0.19069503247737885 0.01042503397911787
-0.1421050727367401 0.18688520789146423 0.010250556282699108
-0.13927015662193298 0.18150772154331207 0.00998884066939354
-0.14067240059375763 0.18168826401233673 0.010032459162175655
-0.1439240723848343 0.18422184884548187 0.010206936858594418
-0.14596349000930786 0.1851612776517868 0.010294175706803799
-0.14677001535892487 0.1845226287841797 0.010294175706803799
-0.14819905161857605 0.18465963006019592 0.01033779513090849
-0.14837466180324554 0.1832348108291626 0.010294175706803799
-0.14917275309562683 0.182585671544075 0.010294175706803799
-0.1499680131673813 0.18193304538726807 0.010294175706803799
-0.15076041221618652 0.18127696216106415 0.010294175706803799
-0.1521921008825302 0.18138276040554047 0.01033779513090849
-0.15491855144500732 0.18300452828407288 0.010468653403222561
-0.15636439621448517 0.18308652937412262 0.010512272827327251
-0.1565096378326416 0.18164566159248352 0.010468653403222561
-0.1566452980041504 0.1802070289850235 0.01042503397911787
-0.15743011236190796 0.1795218288898468 0.01042503397911787
-0.1575499325990677 0.17808493971824646 0.01038141455501318
-0.15766024589538574 0.17665046453475952 0.01033779513090849
-0.15709255635738373 0.17447596788406372 0.010250556282699108
-0.15785235166549683 0.1737888604402542 0.010250556282699108
-0.1592840701341629 0.17383503913879395 0.010294175706803799
-0.16004104912281036 0.17313838005065918 0.010294175706803799
-0.1601136326789856 0.17170776426792145 0.010250556282699108
-0.1601768136024475 0.17027981579303741 0.010206936858594418
-0.16091826558113098 0.16957929730415344 0.010206936858594418
-0.16165664792060852 0.1688755452632904 0.010206936858594418
-0.16447392106056213 0.17032459378242493 0.01033779513090849
-0.16521552205085754 0.1696053296327591 0.01033779513090849
-0.16385330259799957 0.16674508154392242 0.010206936858594418
-0.16668929159641266 0.16815711557865143 0.01033779513090849
-0.16742143034934998 0.16742821037769318 0.01033779513090849
-0.16815036535263062 0.16669610142707825 0.01033779513090849
-0.17101378738880157 0.16806159913539886 0.010468653403222561
-0.17460787296295166 0.17010238766670227 0.010643131099641323
-0.17894162237644196 0.1728089600801468 0.010861228220164776
-0.18618890643119812 0.17824438214302063 0.011253802105784416
-0.18986354768276215 0.18018114566802979 0.011428280733525753
-0.1950138807296753 0.18345825374126434 0.011689996346831322
-0.19800445437431335 0.18464970588684082 0.011820854619145393
-0.20174267888069153 0.18649668991565704 0.011995331384241581
-0.20255450904369354 0.18561464548110962 0.011995331384241581
-0.2012452930212021 -0.1844073385000229 0.023880673572421074
-0.20482788980007172 -0.18934094905853271 0.024403605610132217
-0.20108553767204285 -0.1875152736902237 0.024054985493421555
-0.19736303389072418 -0.18566058576107025 0.023706361651420593
-0.19077013432979584 -0.18103405833244324 0.02300911396741867
-0.1842215210199356 -0.17635369300842285 0.022311870008707047
-0.17986726760864258 -0.17369574308395386 0.02187609113752842
-0.17768050730228424 -0.17308863997459412 0.02170177921652794
-0.17621305584907532 -0.1731640249490738 0.021614624187350273
-0.17404083907604218 -0.17252855002880096 0.021440312266349792
-0.17187756299972534 -0.17187748849391937 0.02126600220799446
-0.1718273162841797 -0.1733332723379135 0.021353155374526978
-0.17316409945487976 -0.17621296644210815 0.021614624187350273
-0.1716984510421753 -0.1762532740831375 0.021527467295527458
-0.1702357530593872 -0.17628416419029236 0.021440312266349792
-0.1708427220582962 -0.17846450209617615 0.021614624187350273
-0.1693766713142395 -0.17848563194274902 0.021527467295527458
-0.1685962677001953 -0.179222971200943 0.021527467295527458
-0.16645385324954987 -0.1784997582435608 0.021353155374526978
-0.16364477574825287 -0.17702975869178772 0.02109169028699398
-0.16354382038116455 -0.17847658693790436 0.021178845316171646
-0.16276352107524872 -0.17918847501277924 0.021178845316171646
-0.16264669597148895 -0.18063725531101227 0.02126600220799446
-0.1618569791316986 -0.18134520947933197 0.02126600220799446
-0.15908387303352356 -0.17981138825416565 0.021004533395171165
-0.15895463526248932 -0.18125279247760773 0.02109169028699398
-0.15620157122612 -0.17968910932540894 0.020830221474170685
-0.1547657698392868 -0.17961427569389343 0.02074306644499302
-0.1539805829524994 -0.18028785288333893 0.02074306644499302
-0.15447981655597687 -0.1824786514043808 0.0209173783659935
-0.15496282279491425 -0.18467721343040466 0.02109169028699398
-0.15479256212711334 -0.1861175298690796 0.021178845316171646
-0.15397900342941284 -0.18679116666316986 0.021178845316171646
-0.15694428980350494 -0.19208990037441254 0.02170177921652794
-0.15986622869968414 -0.19741801917552948 0.02222471497952938
-0.1633681058883667 -0.20355208218097687 0.02283480577170849
-0.16495896875858307 -0.207381471991539 0.02318342588841915
-0.16528601944446564 -0.20966392755508423 0.023357737809419632
-0.16498294472694397 -0.21116814017295837 0.023444894701242447
-0.16162043809890747 -0.20873527228832245 0.023096270859241486
-0.16192100942134857 -0.2110191285610199 0.023270582780241966
-0.16521967947483063 -0.21727445721626282 0.023880673572421074
-0.1642700731754303 -0.21799328923225403 0.023880673572421074
-0.16272127628326416 -0.21790973842144012 0.02379351668059826
-0.15939870476722717 -0.21541449427604675 0.023444894701242447
-0.1561010330915451 -0.21289445459842682 0.023096270859241486
-0.15399952232837677 -0.21196164190769196 0.022921958938241005
-0.15132711827754974 -0.21020612120628357 0.022660493850708008
-0.14867299795150757 -0.20843133330345154 0.022399025037884712
-0.14776213467121124 -0.20907805860042572 0.022399025037884712
-0.14913403987884521 -0.21298493444919586 0.022747648879885674
-0.14706766605377197 -0.21199658513069153 0.022573336958885193
-0.14557702839374542 -0.21181529760360718 0.022486181929707527
-0.14577274024486542 -0.2140953540802002 0.022660493850708008
-0.14483720064163208 -0.21472936868667603 0.022660493850708008
-0.14500582218170166 -0.21701590716838837 0.02283480577170849
-0.1435076743364334 -0.2168157994747162 0.022747648879885674
-0.14256028831005096 -0.2174399048089981 0.022747648879885674
-0.13726964592933655 -0.21137605607509613 0.0220504030585289
-0.13365145027637482 -0.2077838033437729 0.021614624187350273
-0.13274356722831726 -0.20836497843265533 0.021614624187350273
-0.12864363193511963 -0.20388713479042053 0.02109169028699398
-0.12458536773920059 -0.19937758147716522 0.02056875452399254
-0.12423845380544662 -0.2007664144039154 0.020655911415815353
-0.12596382200717926 -0.2055535614490509 0.02109169028699398
-0.1281665414571762 -0.211211159825325 0.021614624187350273
-0.12775681912899017 -0.2126222848892212 0.02170177921652794
-0.1268278807401657 -0.21317769587039948 0.02170177921652794
-0.1198292225599289 -0.20342886447906494 0.020655911415815353
-0.11743488162755966 -0.20136812329292297 0.020394442602992058
-0.1230304166674614 -0.2130940854549408 0.021527467295527458
-0.1265484243631363 -0.22141292691230774 0.022311870008707047
-0.12410948425531387 -0.21936187148094177 0.0220504030585289
-0.11731000244617462 -0.209471195936203 0.021004533395171165
-0.11398006975650787 -0.20562461018562317 0.02056875452399254
-0.11260262876749039 -0.20524659752845764 0.020481599494814873
-0.10932927578687668 -0.20135857164859772 0.020045820623636246
-0.10750661790370941 -0.20007863640785217 0.019871508702635765
-0.1089710220694542 -0.2049437314271927 0.020307287573814392
-0.11039497703313828 -0.20982535183429718 0.02074306644499302
-0.10809843242168427 -0.20765414834022522 0.020481599494814873
-0.10992813855409622 -0.21343763172626495 0.021004533395171165
-0.11170939356088638 -0.2192409336566925 0.021527467295527458
-0.1058194562792778 -0.20994089543819427 0.02056875452399254
-0.1017909124493599 -0.2041599154472351 0.01995866559445858
-0.09869609028100967 -0.20013481378555298 0.019522884860634804
-0.09913202375173569 -0.20324966311454773 0.0197843536734581
-0.09824424237012863 -0.20368027687072754 0.0197843536734581
-0.10078559815883636 -0.21130020916461945 0.020481599494814873
-0.10453708469867706 -0.22164908051490784 0.021440312266349792
-0.10272695869207382 -0.22029739618301392 0.02126600220799446
-0.09759406745433807 -0.21169665455818176 0.020394442602992058
-0.09708257019519806 -0.2130269706249237 0.020481599494814873
-0.10024372488260269 -0.22253145277500153 0.021353155374526978
-0.1004873737692833 -0.22569693624973297 0.021614624187350273
-0.09468704462051392 -0.2151913046836853 0.02056875452399254
-0.09295273572206497 -0.21377526223659515 0.020394442602992058
-0.09831098467111588 -0.2288234978914261 0.021788934245705605
-0.0930299162864685 -0.21916328370571136 0.020830221474170685
-0.08783510327339172 -0.209461510181427 0.019871508702635765
-0.08653909713029861 -0.2089224010705948 0.0197843536734581
-0.08562668412923813 -0.2092979997396469 0.0197843536734581
-0.08732493221759796 -0.21613521873950958 0.020394442602992058
-0.08748848736286163 -0.21929001808166504 0.020655911415815353
-0.08799125999212265 -0.22337715327739716 0.021004533395171165
-0.08737683296203613 -0.22468742728233337 0.02109169028699398
-0.08389657735824585 -0.21855635941028595 0.020481599494814873
-0.08047153800725937 -0.21239930391311646 0.019871508702635765
-0.08338166028261185 -0.22301256656646729 0.020830221474170685
-0.08240780234336853 -0.22337426245212555 0.020830221474170685
-0.08143237233161926 -0.22373171150684357 0.020830221474170685
-0.08415835350751877 -0.23439840972423553 0.021788934245705605
-0.08280227333307266 -0.23382434248924255 0.02170177921652794
-0.08178123831748962 -0.2341834008693695 0.02170177921652794
-0.08140731602907181 -0.2364218533039093 0.02187609113752842
-0.08133561909198761 -0.23960477113723755 0.022137558087706566
-0.08028937876224518 -0.23995739221572876 0.022137558087706566
-0.07643384486436844 -0.2317906767129898 0.021353155374526978
-0.07511390745639801 -0.2311745434999466 0.02126600220799446
-0.07471191883087158 -0.23339760303497314 0.021440312266349792
-0.07429195940494537 -0.23562157154083252 0.021614624187350273
-0.07237692177295685 -0.23308931291103363 0.021353155374526978
-0.07165045291185379 -0.23435555398464203 0.021440312266349792
-0.07263693958520889 -0.24134346842765808 0.0220504030585289
-0.07073437422513962 -0.2387925684452057 0.021788934245705605
-0.06941302120685577 -0.23814254999160767 0.02170177921652794
-0.06754949688911438 -0.23557032644748688 0.021440312266349792
-0.06625058501958847 -0.23490403592586517 0.021353155374526978
-0.06575745344161987 -0.23711079359054565 0.021527467295527458
-0.06367411464452744 -0.2335510104894638 0.021178845316171646
-0.06239661946892738 -0.2328643649816513 0.02109169028699398
-0.06188724562525749 -0.2350611388683319 0.02126600220799446
-0.06160930544137955 -0.23822230100631714 0.021527467295527458
-0.06007884815335274 -0.23655778169631958 0.021353155374526978
-0.05856410041451454 -0.23488447070121765 0.021178845316171646
-0.05777546018362045 -0.23610541224479675 0.02126600220799446
-0.056744713336229324 -0.2363552451133728 0.02126600220799446
-0.05594122037291527 -0.23757025599479675 0.021353155374526978
-0.05355950817465782 -0.2319881170988083 0.020830221474170685
-0.051447466015815735 -0.22736145555973053 0.020394442602992058
-0.05023931339383125 -0.2266111820936203 0.020307287573814392
-0.050306931138038635 -0.23169578611850739 0.02074306644499302
-0.05053824558854103 -0.23775964975357056 0.02126600220799446
-0.04990608990192413 -0.23992852866649628 0.021440312266349792
-0.04965318739414215 -0.24404877424240112 0.021788934245705605
-0.047616105526685715 -0.23937785625457764 0.021353155374526978
-0.04657118022441864 -0.2395833283662796 0.021353155374526978
-0.04441045969724655 -0.23391199111938477 0.020830221474170685
-0.38959699869155884 -2.102034330368042 0.18703623116016388
-0.3859168589115143 -2.134103298187256 0.18973805010318756
-0.0 -0.0 0.0
-0.34585294127464294 -2.0127005577087402 0.178669273853302
-0.0 -0.0 0.0
-0.0 -0.0 0.0
-0.0 -0.0 0.0
-0.22823172807693481 -1.4828075170516968 0.13125655055046082
-0.2222013920545578 -1.486744999885559 0.13151800632476807
-0.21571217477321625 -1.487700343132019 0.13151800632476807
-0.20935751497745514 -1.4896140098571777 0.13160517811775208
-0.20312459766864777 -1.4924874305725098 0.1317794770002365
-0.19648048281669617 -1.4923717975616455 0.1316923201084137
-0.18946407735347748 -1.4892621040344238 0.13134370744228363
-0.1825999766588211 -1.4871082305908203 0.13108223676681519
-0.17669503390789032 -1.4928373098373413 0.13151800632476807
-0.17006689310073853 -1.49260413646698 0.13143084943294525
-0.1630103439092636 -1.4883806705474854 0.13099507987499237
-0.15651455521583557 -1.4890778064727783 0.13099507987499237
-0.14981618523597717 -1.4877642393112183 0.13082076609134674
-0.14303675293922424 -1.485428810119629 0.1305592954158783
-0.13618941605091095 -1.482070803642273 0.13021068274974823
-0.12963458895683289 -1.4816584587097168 0.13012351095676422
-0.12333346158266068 -1.4841957092285156 0.13029783964157104
-0.11654365807771683 -1.480747103691101 0.12994921207427979
-0.10978630185127258 -1.4772677421569824 0.12960058450698853
-0.10340901464223862 -1.4787265062332153 0.12968774139881134
-0.09695592522621155 -1.479163646697998 0.12968774139881134
-0.0901968851685524 -1.4746007919311523 0.12925195693969727
-0.08376192301511765 -1.474980354309082 0.12925195693969727
-0.07727322727441788 -1.4743369817733765 0.12916481494903564
-0.0706961452960968 -1.4716750383377075 0.1289033442735672
-0.0642741322517395 -1.471969485282898 0.1289033442735672
-0.05785089731216431 -1.472235918045044 0.1289033442735672
-0.0515308752655983 -1.4754611253738403 0.12916481494903564
-0.04512295499444008 -1.4766675233840942 0.12925195693969727
-0.03860116004943848 -1.4738627672195435 0.12899048626422882
-0.032104700803756714 -1.47102952003479 0.12872903048992157
-0.025685876607894897 -1.4711555242538452 0.12872903048992157
-0.019266560673713684 -1.4712536334991455 0.12872903048992157
-0.012838181108236313 -1.4703274965286255 0.12864187359809875
-0.00639214226976037 -1.4633961915969849 0.12803179025650024
-6.86759904056089e-06 -1.4634101390838623 0.12803179025650024
0.006374065298587084 -1.462399959564209 0.12794463336467743
0.012250932864844799 -1.4045811891555786 0.12288959324359894
0.015198853798210621 -1.1614636182785034 0.10162358731031418
0.01838933490216732 -1.0538136959075928 0.09221077710390091
0.022487526759505272 -1.0308164358139038 0.09020619839429855
0.02695898339152336 -1.0297125577926636 0.09011903405189514
0.031573329120874405 -1.0335681438446045 0.0904676616191864
0.0376470610499382 -1.0782219171524048 0.0943896695971489
0.05095450580120087 -1.2970412969589233 0.11356393247842789
0.06269616633653641 -1.4361411333084106 0.12576574087142944
0.06967872381210327 -1.450779676437378 0.12707306444644928
0.0761646181344986 -1.4534462690353394 0.12733453512191772
0.08244922012090683 -1.4521055221557617 0.1272473782300949
0.08848033100366592 -1.4467602968215942 0.12681159377098083
0.09524815529584885 -1.45331871509552 0.12742169201374054
0.3516685366630554 -5.0294623374938965 0.4410952031612396
0.37368398904800415 -5.028873443603516 0.44118237495422363
0.39546653628349304 -5.025208950042725 0.441008061170578
0.4173891842365265 -5.023435592651367 0.441008061170578
0.43904340267181396 -5.018589019775391 0.44074657559394836
0.4606633484363556 -5.013649940490723 0.4404851198196411
0.48243945837020874 -5.010600566864014 0.4403979778289795
0.5041977167129517 -5.007456302642822 0.4403107762336731
0.5259377360343933 -5.004218101501465 0.4402236342430115
0.5477675795555115 -5.001875400543213 0.4402236342430115
0.5699253082275391 -5.002407550811768 0.4404851198196411
0.5916297435760498 -4.9988837242126465 0.4403979778289795
0.6130714416503906 -4.993288040161133 0.44013649225234985
0.3127749562263489 -2.4587182998657227 0.21684348583221436
0.3248003125190735 -2.4672069549560547 0.2177150398492813
0.33542802929878235 -2.4647793769836426 0.2176278978586197
0.34423840045928955 -2.4494810104370117 0.21640770137310028
0.7215670347213745 -4.976754188537598 0.4399621784687042
0.27534162998199463 -1.842423677444458 0.16298124194145203
0.28140801191329956 -1.8284049034118652 0.16184821724891663
0.28922736644744873 -1.8261756896972656 0.1617610603570938
0.2962319850921631 -1.818996787071228 0.16123811900615692
0.3020285665988922 -1.8049139976501465 0.16010509431362152
0.8524388074874878 -4.961069583892822 0.4403979778289795
0.8742502331733704 -4.9582839012146 0.4404851198196411
0.8955217003822327 -4.952461242675781 0.4403107762336731
0.9173038005828857 -4.94948673248291 0.4403979778289795
0.9394484758377075 -4.948372840881348 0.44065943360328674
0.9610306620597839 -4.9442267417907715 0.44065943360328674
0.9829832911491394 -4.9419403076171875 0.44083371758461
1.0053313970565796 -4.941509246826172 0.44118237495422363
1.0270859003067017 -4.938051223754883 0.44126951694488525
1.0486222505569458 -4.933522701263428 0.44126951694488525
1.070561408996582 -4.93084716796875 0.4414438009262085
1.0924971103668213 -4.928074359893799 0.4416181445121765
1.1142091751098633 -4.924232006072998 0.4417053163051605
1.1361324787139893 -4.9212646484375 0.44187960028648376
1.1585079431533813 -4.920139789581299 0.442228227853775
1.1801973581314087 -4.916006565093994 0.44231539964675903
1.2016360759735107 -4.9108099937438965 0.44231539964675903
1.2232928276062012 -4.906486988067627 0.44240254163742065
1.2454253435134888 -4.903999328613281 0.4426640272140503
1.2675591707229614 -4.901411533355713 0.44292548298835754
1.289186954498291 -4.8967976570129395 0.44301262497901917
1.3110564947128296 -4.893050193786621 0.4431869387626648
1.3339660167694092 -4.893050193786621 0.4437098503112793
1.3555692434310913 -4.888143062591553 0.4437970221042633
1.3768846988677979 -4.882181644439697 0.4437970221042633
1.0884449481964111 -3.7959487438201904 0.3454853594303131
1.1027673482894897 -3.7835118770599365 0.3447881042957306
1.1181336641311646 -3.774843692779541 0.34443947672843933
1.4687706232070923 -4.880302906036377 0.4458887577056885
1.4903420209884644 -4.874800205230713 0.4459759294986725
1.1789696216583252 -3.7969887256622314 0.34783855080604553
1.1958253383636475 -3.7927582263946533 0.34792572259902954
1.2141849994659424 -3.7931971549987793 0.34844866394996643
1.2294929027557373 -3.7840735912323 0.34810003638267517
1.246928095817566 -3.781511068344116 0.3483614921569824
1.2653125524520874 -3.781702756881714 0.3488844335079193
1.2830818891525269 -3.779918670654297 0.3492330312728882
1.3018330335617065 -3.7808783054351807 0.34984317421913147
1.3209450244903564 -3.7826857566833496 0.3505403995513916
1.3391002416610718 -3.7815818786621094 0.35097619891166687
1.3596268892288208 -3.7869536876678467 0.3520220220088959
1.7590982913970947 -4.8331828117370605 0.4499850869178772
1.7784461975097656 -4.820788860321045 0.4495493173599243
1.4174526929855347 -3.791226863861084 0.35411378741264343
1.430804967880249 -3.7766220569610596 0.3533293902873993
1.4479838609695435 -3.772203207015991 0.3535037040710449
1.874224066734314 -4.819655895233154 0.452425479888916
1.8948705196380615 -4.810505390167236 0.4523382782936096
1.9176877737045288 -4.806818008422852 0.4527740776538849
1.9408820867538452 -4.8039469718933105 0.4532970190048218
1.9652193784713745 -4.803730487823486 0.45408138632774353
1.9884480237960815 -4.800631999969482 0.4546043276786804
2.010531425476074 -4.794666290283203 0.45486581325531006
2.0345466136932373 -4.793184280395508 0.4555630683898926
2.0581939220428467 -4.79066801071167 0.4561731517314911
2.0790772438049316 -4.781641960144043 0.4561731517314911
2.1019272804260254 -4.7770843505859375 0.45660892128944397
2.1272082328796387 -4.777878761291504 0.45756766200065613
2.150080680847168 -4.773092746734619 0.4580034017562866
2.1737782955169678 -4.7700114250183105 0.45861348509788513
2.1979072093963623 -4.76771879196167 0.45931077003479004
2.2216362953186035 -4.764403343200684 0.45992085337638855
2.244953155517578 -4.760070323944092 0.46044379472732544
2.2657012939453125 -4.750229835510254 0.46044379472732544
2.290301561355591 -4.7483744621276855 0.4612281918525696
2.3166751861572266 -4.749975681304932 0.462361216545105
2.3409032821655273 -4.746969699859619 0.4630584418773651
2.365593671798706 -4.744733810424805 0.46384283900260925
2.3871707916259766 -4.736146450042725 0.46401718258857727
0.0 -0.0 0.0
0.0 -0.0 0.0
2.120530843734741 -4.073575496673584 0.40178796648979187
2.141995429992676 -4.0713372230529785 0.402485191822052
2.1681578159332275 -4.077785015106201 0.40405401587486267
2.1948883533477783 -4.084959506988525 0.40570998191833496
2.220296621322632 -4.089350700378418 0.4071044623851776
2.247701644897461 -4.097092151641846 0.4088475704193115
2.2752163410186768 -4.104671955108643 0.4105907082557678
2.3013792037963867 -4.109481334686279 0.4120723307132721
2.3315517902374268 -4.121077060699463 0.4142512381076813
2.359891653060913 -4.129027366638184 0.4160814881324768
2.3878471851348877 -4.135945796966553 0.4178246259689331
2.4144022464752197 -4.140117168426514 0.41930627822875977
2.4425556659698486 -4.14670991897583 0.4210493862628937
2.4728498458862305 -4.156559944152832 0.42314109206199646
2.501737117767334 -4.163662910461426 0.42497140169143677
2.53125 -4.171444416046143 0.4268888235092163
2.560878038406372 -4.179046630859375 0.42880624532699585
2.590620994567871 -4.186470031738281 0.4307236969470978
2.6220600605010986 -4.19624662399292 0.4329025447368622
2.655229091644287 -4.208356857299805 0.435342937707901
2.6848061084747314 -4.214375019073486 0.43717318773269653
2.7144858837127686 -4.22021484375 0.43900346755981445
2.7458958625793457 -4.228382110595703 0.4410952031612396
2.7763354778289795 -4.234689235687256 0.44301262497901917
2.8074326515197754 -4.241641521453857 0.4450172185897827
2.8403029441833496 -4.250887393951416 0.4472832679748535
2.8727500438690186 -4.259100914001465 0.4494621455669403
2.905322790145874 -4.2671122550964355 0.4516410529613495
2.946483612060547 -4.287234306335449 0.4551272690296173
3.0225119590759277 -4.357008457183838 0.46393001079559326
3.03920841217041 -4.340514659881592 0.463581383228302
3.027071714401245 -4.2832818031311035 0.45887497067451477
3.0422611236572266 -4.265166759490967 0.45835205912590027
3.0614242553710938 -4.252660274505615 0.4584392011165619
3.082878351211548 -4.243291854858398 0.45887497067451477
3.104897975921631 -4.234620094299316 0.45939791202545166
3.1251227855682373 -4.2234344482421875 0.4596593677997589
3.147693395614624 -4.215345859527588 0.4602694511413574
3.170252799987793 -4.2071404457092285 0.46087953448295593
3.1909918785095215 -4.19644021987915 0.4612281918525696
3.212303876876831 -4.186429023742676 0.46166396141052246
3.2335891723632812 -4.176311016082764 0.46209973096847534
3.2542340755462646 -4.165302276611328 0.4624483585357666
3.277927875518799 -4.158104419708252 0.46323275566101074
3.299140453338623 -4.147660255432129 0.4636685252189636
3.319077253341675 -4.135556697845459 0.46393001079559326
3.3421053886413574 -4.127228736877441 0.4646272659301758
3.3644938468933105 -4.118006706237793 0.4652373492717743
3.3855984210968018 -4.107131481170654 0.46567314863204956
3.4098565578460693 -4.099978923797607 0.4665446877479553
3.434117078781128 -4.092693328857422 0.46741625666618347
3.4538726806640625 -4.07995080947876 0.4676777124404907
3.4703478813171387 -4.063326835632324 0.4675033986568451
0.0 -0.0 0.0
3.082170009613037 -3.5456936359405518 0.4110264480113983
3.123884677886963 -3.5621707439422607 0.4145126938819885
0.0 -0.0 0.0
3.579389810562134 -4.010438442230225 0.4702923893928528
3.6115188598632812 -4.011069297790527 0.4722098112106323
3.6323349475860596 -3.998960256576538 0.4726455807685852
3.655133008956909 -3.9889488220214844 0.4733428359031677
3.679941415786743 -3.9810094833374023 0.4743015468120575
3.702712059020996 -3.9707436561584473 0.47499880194664
3.7281930446624756 -3.963257312774658 0.4760446548461914
3.7509360313415527 -3.952733039855957 0.4767419099807739
3.767458438873291 -3.9356095790863037 0.4766547679901123
3.718853712081909 -3.85105562210083 0.46837493777275085
3.4812047481536865 -3.5736215114593506 0.4364759624004364
3.497462511062622 -3.5591084957122803 0.436563104391098
3.6700563430786133 -3.70229172706604 0.45608600974082947
0.0 -0.0 0.0
3.794196844100952 -3.761298656463623 0.46741625666618347
3.871677875518799 -3.8047571182250977 0.474911630153656
3.888242244720459 -3.787827730178833 0.474911630153656
3.90329909324646 -3.769441843032837 0.4747373163700104
3.9132325649261475 -3.7461748123168945 0.47395291924476624
3.9230377674102783 -3.722892999649048 0.4731685221195221
3.9370675086975098 -3.7036924362182617 0.47290703654289246
0.0 -0.0 0.0
0.0 -0.0 0.0
0.0 -0.0 0.0
3.439948320388794 -3.124688148498535 0.4065815508365631
3.2862391471862793 -2.9589991569519043 0.38688433170318604
0.0 -0.0 0.0
4.005062103271484 -3.543447256088257 0.46785199642181396
1.9121272563934326 -1.6769227981567383 0.22250860929489136
1.9119075536727905 -1.6620278358459473 0.2216370552778244
1.9115945100784302 -1.6471670866012573 0.22076550126075745
1.916490912437439 -1.6368696689605713 0.220504030585289
1.9289369583129883 -1.6329975128173828 0.2211141139268875
1.9398592710494995 -1.6277670860290527 0.2215498834848404
1.9538365602493286 -1.6250206232070923 0.22233429551124573
4.092464447021484 -3.373633861541748 0.46401718258857727
4.10174560546875 -3.351332902908325 0.46340709924697876
4.111684322357178 -3.3296422958374023 0.46288415789604187
4.121511459350586 -3.307929039001465 0.462361216545105
4.131227970123291 -3.2861931324005127 0.4618382751941681
4.142397880554199 -3.265669107437134 0.46148964762687683
4.151112079620361 -3.2432701587677 0.46087953448295593
1.8502482175827026 -1.4326444864273071 0.2047288417816162
1.858852505683899 -1.4263768196105957 0.20499029755592346
1.8555428981781006 -1.411016583442688 0.20394444465637207
1.8577038049697876 -1.3999091386795044 0.2035086452960968
1.8645926713943481 -1.3923863172531128 0.2035958170890808
1.876255989074707 -1.3883854150772095 0.20420590043067932
1.9120205640792847 -1.4019808769226074 0.2074306607246399
2.048680543899536 -1.4884849786758423 0.2215498834848404
2.17319393157959 -1.5645090341567993 0.23427464067935944
2.2075741291046143 -1.5746809244155884 0.23723793029785156
2.2266268730163574 -1.5736579895019531 0.2385452687740326
5.898259162902832 -4.130094528198242 0.6299616694450378
5.933412551879883 -4.116243839263916 0.6317920088768005
5.975124835968018 -4.1066789627075195 0.6343194842338562
6.019336700439453 -4.098510265350342 0.6371084451675415
6.066067695617676 -4.091704845428467 0.6401588916778564
6.11285400390625 -4.084568977355957 0.6432093381881714
6.159692764282227 -4.0771026611328125 0.6462598443031311
6.206582069396973 -4.069304943084717 0.649310290813446
2.1438252925872803 -1.3922479152679443 0.22364163398742676
2.135636568069458 -1.3737188577651978 0.2221599817276001
2.1332082748413086 -1.3590346574783325 0.22128841280937195
2.132377862930298 -1.3454612493515015 0.22059118747711182
2.138228178024292 -1.3361443281173706 0.22059118747711182
2.1525089740753174 -1.332044005393982 0.22146274149417877
2.166794538497925 -1.3278446197509766 0.22233429551124573
2.1861939430236816 -1.3266464471817017 0.22372879087924957
6.35728645324707 -3.819934368133545 0.6488744616508484
7.622988700866699 -4.5353102684021 0.7760347127914429
6.980062007904053 -4.111670017242432 0.7087504267692566
6.991052150726318 -4.077160358428955 0.7080532312393188
7.001873016357422 -4.042632579803467 0.7073559761047363
7.014256954193115 -4.009077072143555 0.7068330645561218
19.54218101501465 -11.056710243225098 1.9644032716751099
6.701306343078613 -3.7530062198638916 0.671970784664154
5.5230841636657715 -3.061573028564453 0.5524802207946777
5.5372633934021 -3.037924289703369 0.5525673627853394
5.574103832244873 -3.026569128036499 0.5549206137657166
5.610072612762451 -3.0144784450531006 0.5571866631507874
5.647800922393799 -3.0030667781829834 0.5596270561218262
5.688179969787598 -2.992774248123169 0.5623288154602051
5.727693557739258 -2.98172664642334 0.5649434924125671
5.766332626342773 -2.9699347019195557 0.5674710273742676
5.80852746963501 -2.9596710205078125 0.5703471302986145
5.847184181213379 -2.9473018646240234 0.5728747248649597
5.885842323303223 -2.9346513748168945 0.5754022002220154
